# .PCD v0.7 - Point Cloud Data file format
VERSION 0.7
FIELDS x y z
SIZE 4 4 4
TYPE F F F
COUNT 1 1 1
WIDTH 1647
HEIGHT 1
VIEWPOINT 0 0 0 1 0 0 0
POINTS 1647
DATA ascii
29.498812 1.1872669 -4.4244375
13.30627 -4.9520216 -0.36437228
30 1.4730053 0.52452892
-7 3.7271385 6.425055
17.125669 1.2712772 4.8326049
27.310673 -4.7287107 1.5376685
15.505275 -1.8510284 4.5989127
-5.4379311 -5.277668 7.8587046
18.860577 -4.4084415 -2.3108673
-7 -2.1892312 4.6310577
28.978415 4.8382096 -1.228714
-2.7741816 -3.165997 -8.5
10.21919 2.5785503 -4.2698236
13.894565 1.2432241 -4.8362989
-7 5.1895823 -0.11497378
30 0.0051810741 -0.45737535
-6.0820417 9.6889563 0.0079259407
-4.5866256 2.7955527 8.5
8.0953188 4.8201952 1.3168042
-7 -4.2287078 3.1718831
-7 -3.132045 7.598948
-7.0000005 -3.6676381 6.9327536
15.117036 1.8107722 4.6155872
0 6.8030233 4.6919003
17.70554 -2.8161397 4.0875077
-5.4027934 8.607666 -2.0911164
-7 -1.7671533 -4.0760465
-7 -1.4277215 4.9829521
-2.0304785 1.5156003 -8.5
-2.6040237 3.311419 -8.5
16.796179 1.0189503 4.8658299
30 2.0909069 -0.79293907
12.301978 4.8496699 -1.1416783
0.61874586 4.2816277 2.5631683
18.032368 2.7104428 4.1686149
-7 8.1374378 1.7707297
-0.22024503 3.0338783 -8.5
1.2196776 -4.1191788 2.7748671
0 9.0929832 -1.1581247
30 -1.9055625 -3.5317087
22.929468 -2.7377129 4.1476889
0 5.7081842 0.060216188
-6.5536804 3.8582895 8.3531303
0 -1.5115547 -5.9089732
12.636892 3.1466999 -3.8338494
-2.8675175 -7.5415597 -3.9376149
-3.3191864 1.0686799 -8.5
28.840126 0.075446263 -4.9900656
-7 -4.3205028 -3.1643319
-3.8933673 1.9565465 -8.5
-7 3.2549834 7.6333208
-2.7712774 8.396781 -2.4563551
-2.302206 -9.0751781 -1.2813689
-7 -0.76379144 -6.7971983
-0.90655255 7.0813675 -4.734674
0 7.9765105 -0.45952126
-7 -2.3357699 -3.1392388
14.037408 -2.6224127 -4.2361655
-3.3553574 -5.107193 -8.1539688
14.415258 -4.8505573 -1.1349396
12.379296 -3.8891919 3.0745792
23.347115 1.879537 -4.5871038
9.0537996 1.9924692 4.5403261
-5.1083212 3.1460383 -8.5
-7 -1.1684433 7.5498371
9.174716 3.3307996 -3.6925788
-2.5342698 -5.6102142 -7.2827253
23.049526 -0.26612443 4.9649582
21.63135 4.8391247 -1.2217628
-5.76437 8.2324677 -2.7409608
-4.6332045 -1.2715528 8.5
-2.5207045 -8.9675131 -1.4678447
0 3.9977684 5.8946257
14.397142 4.4609871 -2.1840105
13.244252 1.6721311 4.6730146
-7 -1.3116624 4.5633578
16.375063 -2.8497944 4.0616822
23.641899 4.9546571 -0.34435523
20.948586 4.6742029 -1.6692617
26.272045 -2.067724 4.5091548
0 6.732604 -2.5297434
-7 -4.8517852 -5.8714094
-4.3084874 5.2730732 7.8666601
-0.58498108 9.6534204 -0.27796435
11.196733 -1.8228757 -4.6105742
18.977865 3.873209 -3.0954072
2.9414814 -4.0785961 -2.8277526
-6.4640503 5.3116822 7.7066879
0 -4.8521738 1.5365812
-5.1497793 -7.0380521 -4.8097
30 -2.5274148 1.9668572
21.230705 -4.7573137 -1.4686153
-2.1741884 7.5812159 -3.8689301
-7 0.54793233 4.8230257
-7 -0.61905468 4.2463398
-2.3524196 5.2654076 -7.87994
0 -2.7036533 6.6744413
28.875586 2.9285989 4.0012112
9.5042181 -2.2201989 -4.4459972
10.939647 -4.8882403 0.848755
-5.2203188 6.6532316 5.4762077
10.177446 1.3833433 4.792634
4.0701561 -4.72083 -1.5566941
3.1957185 -0.81935906 4.8921108
0 1.8721707 5.0231409
0 7.7890897 1.9462035
-3.8114009 1.0410852 8.5
-7 0.58157343 7.6148415
-7 -0.36351353 6.9750829
21.161812 -2.2391801 -4.4381351
-6.4641595 5.2323837 -7.767324
21.41967 4.1690297 2.7099025
9.8519306 4.6852574 -1.6425741
18.30158 4.6699467 1.6795374
0 6.924284 -2.0481608
-4.9411116 7.6936874 3.6741385
29.151236 -0.39992151 4.8761082
17.315161 -0.07677751 4.9898901
-2.8258626 0.37420988 -8.5
18.412285 -4.4054022 -2.3182039
0 -4.52175 4.0460119
30 -3.0486588 2.6232514
-4.1511045 7.3192873 4.3226013
2.0837181 2.6231799 4.2355771
24.349834 4.4467449 -2.2183948
-7 4.504405 0.93558645
-2.3760011 0.9239682 -8.5
0 5.5846925 5.7106919
-5.934577 7.0062184 -4.8648229
12.518721 2.7222381 -4.1595635
4.1561985 -3.4475958 -3.6029544
-5.7458339 4.4260321 8.5
5.8094273 -3.8122258 -3.1748786
29.101553 -2.6594641 4.1808
15.806936 -0.76007628 4.8999171
-5.2227888 -4.755827 -8.4287252
18.065821 -4.9050212 0.72131586
-4.920392 -9.3770571 0.75851369
-2.5893335 -9.455533 -0.62258947
30 1.8667003 -0.88353193
-2.304322 -4.4860463 8.5
25.392353 2.6671476 4.201838
-5.2434936 7.4485297 4.098753
13.91116 -4.6282568 1.7801857
1.317988 -1.7865914 -4.6256032
0.16501194 1.1960278 -4.8425136
19.992754 -3.3252909 -3.696806
17.423971 -4.9285913 -0.54231024
16.428928 4.637238 1.7585022
12.203247 -3.0325165 -3.921469
-1.4942217 -4.2865887 -8.5
-4.6729736 -7.4681845 -4.0647125
0.97116971 -3.0647295 3.8967497
-5.6383376 -1.5521975 -8.5
0 5.986362 -2.8592379
14.326039 -4.3829074 2.3725119
4.7948413 -4.4969482 2.097193
11.457845 0.90800309 -4.8804388
30 -2.5874772 3.0324719
-7 -7.7706094 1.7277882
30 -0.68086791 3.7678461
12.007813 3.6789718 -3.3485317
-1.6237564 6.9138966 -5.0247355
-3.8007979 -5.6313105 -7.2461834
15.942601 -2.1490879 4.4754524
6.3477516 3.9239142 -3.02933
27.810427 -1.488803 -4.748951
30 0.29136026 1.27469
-2.5802619 -7.1037292 4.6959424
-2.2015731 7.6661415 3.7218366
18.397236 2.8435979 4.0664372
2.8015933 2.2512064 4.4331536
-7 -1.0065364 -2.1312315
0.25991574 4.436008 2.2443159
12.850902 0.26564437 4.9650216
16.295485 4.8281336 -1.2976394
-6.3574996 -2.9314463 -8.5
0 -8.5640221 1.260769
5.8381548 -0.1730569 -4.9772124
12.848598 -4.1902518 2.6822464
-5.4531293 9.5004444 -0.54480392
15.494869 -4.8896518 -0.83803576
29.891148 -2.4494109 -3.355268
8.5999355 4.8457842 -1.1711887
0 6.629199 0.88314545
13.339326 4.3760252 2.389127
-7 -1.5600178 6.4405098
25.00136 -0.06976679 4.9908137
28.59782 4.9790411 -0.15917318
3.9721014 4.6872683 1.6377181
0.50692284 -4.08989 -2.813035
-6.2661152 -8.9378471 1.5192354
20.673252 4.7783542 -1.4178174
0 7.5931101 -0.13166524
-3.6921129 -1.1682315 -8.5
6.649251 3.5833688 -3.4731188
28.069185 -4.9105883 0.67903328
-7 5.3488765 0.29050088
0.48206624 4.5454731 1.9800431
15.945804 0.42961863 4.9434299
-1.4915732 -0.63212729 -8.5
-7 -3.5074749 -6.7789025
-4.4383683 8.9790058 -1.4479487
-7 -4.7481399 3.216691
7.1813951 2.9867196 3.9566116
-3.5820472 9.5008116 0.54416621
0 -2.2118123 6.6828117
26.888344 -4.3812861 2.3764253
-0.17349704 7.1874514 -4.5509348
15.299171 -3.486685 -3.5729587
0 -4.4317198 2.7472348
25.487844 -1.2020866 4.8417153
15.731141 -1.6834424 -4.6683292
-7 -1.2308837 -0.098146439
25.336239 4.0026407 -2.9267354
-7 -0.76784998 -0.53719783
2.1581652 -2.0805492 4.5038419
12.351028 0.044329256 -4.9941626
0 2.0698013 -5.9330125
18.288189 3.459549 -3.5937817
22.826441 -4.9597702 -0.30552348
26.686226 0.64437842 4.9151516
16.972534 4.6114311 1.8208055
10.160429 -4.9169397 0.63079691
6.6579099 -2.7708504 4.1222606
6.0296712 1.0474988 -4.862071
-2.3673248 0.46073389 8.5
9.1656771 -3.4375534 3.6106603
4.419857 0.89835232 4.8817096
1.012132 -4.8539186 -1.1094098
19.283066 -2.385392 -4.3775721
17.056051 -3.1857691 -3.8038692
5.1715178 -3.5657802 3.4960401
23.18767 -4.8565655 1.0893065
-7 1.411818 1.7992988
-7 5.7414994 -2.5642691
4.1371851 4.0437522 -2.8731604
-6.9999995 -2.0528071 6.619966
10.311207 -2.6381443 -4.2240934
11.305147 1.8702638 -4.5909452
-7 -3.2672548 -2.2442055
28.58061 4.9589052 -0.31209266
-7 -5.603323 4.4695821
-5.0841031 -7.9413157 -3.2452402
23.402147 -3.7563481 -3.2476969
20.544121 2.6342793 4.2270594
-2.4470236 -5.957612 -6.6810331
-1.5821415 6.9645324 4.9370332
-6.8759556 6.5364408 5.6747551
12.891445 2.922631 -4.0057907
30 -0.097290754 2.7940769
17.157724 -4.3899302 2.3555572
-1.4743429 -9.1628075 -1.1295924
-4.2349577 -8.7230339 -1.8912872
18.308073 2.7845478 4.1117496
23.550226 -0.3266643 4.9569864
27.64802 3.1710877 -3.815135
-7 3.0849953 -0.36785722
-3.6569617 -5.3801227 7.6812506
-2.9136565 -9.1475801 1.1559743
-3.8543129 2.4782774 -8.5
21.515598 4.3460684 -2.4614489
-6.6206079 -7.3271432 -4.3089871
-7 6.8007083 -0.38778007
-0.26136586 -0.061574697 -8.5
5.6177778 4.8391232 1.2217764
16.448772 -3.1079211 3.8636065
-7 -0.57579911 0.54865861
-6.8649497 -0.66044116 8.5
0 1.2512865 5.5217037
0 5.9202867 -3.5068855
28.059807 3.32704 3.6954639
27.336159 -1.6071917 4.699913
-2.8162103 4.5299568 8.5
30 -3.7318358 -0.65231562
0 2.265336 6.3091497
1.4243267 4.1486521 -2.7364583
19.682682 4.9484639 -0.39138845
23.350786 -4.9719439 -0.21307291
-7 5.1929898 5.720407
19.925262 3.4066296 3.6343901
23.149582 1.8356698 -4.6052747
-7 3.5244188 -4.1589222
-6.0330081 -9.0118046 -1.3911371
1.5568868 1.3430138 -4.809339
15.49376 -0.92385215 -4.8783522
-5.0640378 1.2264518 8.5
6.6828871 3.539758 -3.5299509
15.225749 4.8477569 1.1562063
-6.2032175 5.7386894 7.0602016
0 -0.59104848 7.2363443
-6.8817806 4.1619687 7.617425
-7 -3.2907856 5.9836111
23.069731 4.1582704 -2.7239237
27.770065 -2.1284752 4.4839907
15.459082 -3.4823661 -3.5762727
29.72065 3.1154075 3.0396557
0 5.4138031 6.6358109
-2.9242916 -0.35181808 -8.5
3.6768229 4.8905492 0.83122075
28.618755 -4.8524776 -1.1203601
18.032579 2.2039521 -4.4527268
20.419224 4.7188969 -1.5613612
29.097666 -4.8564425 0.95609087
-7 1.5383199 4.6740603
-4.9877291 7.1991019 -4.530746
-1.4868144 -5.9617434 -6.6738791
15.011006 -2.8011241 -4.0990295
-2.9692402 3.2826715 -8.5
-2.2191672 -8.6350365 -2.0436988
29.325661 1.6705027 4.4100757
-5.1527491 -5.8727627 6.8279929
21.435612 3.3733871 3.6598988
30 -1.9866179 -2.8666911
6.2238369 4.8108745 -1.3393074
18.330517 1.9170203 4.571578
19.839584 0.97891927 4.8711014
30 3.3125803 1.5067978
23.711895 2.4860997 4.3358579
0 -5.5363326 4.3379331
11.357507 -3.0276649 3.9251919
-7 0.61562479 -6.5165658
-7 5.7988815 -0.087426305
-4.3660154 -5.7200465 7.0924983
0 3.0950007 -7.2543674
29.06292 4.8605947 1.0587091
30 2.7962382 -0.84252864
10.189693 -3.0998764 -3.8697796
0.45366088 -3.432416 -3.6146023
-7 2.6291022 -4.3863621
29.308865 -3.4175544 -3.3165026
-7 -1.9606378 -7.8338661
-2.1943169 3.0955489 -8.5
3.2006757 -2.8060248 -4.0952692
-1.4422179 -9.1292372 1.187737
-2.008848 8.2357988 2.7351842
-3.6719027 8.6992741 1.9324387
25.725828 2.1831326 4.4613504
19.732456 -2.0096831 4.533196
14.62534 -3.733295 3.277739
13.760689 -0.87738431 4.8844709
24.252108 -3.2682998 -3.7405381
0 -6.3579073 -2.0204997
19.015999 0.74947608 -4.9013128
-0.37726903 -6.8114853 -5.2021132
6.6723762 -0.63264614 4.9166965
-7 -0.43821394 -5.3795333
-3.9077492 -8.5936146 -2.1154423
-3.3330126 3.7399058 -8.5
-7 8.3998766 0.33385262
12.745562 4.8653212 1.0228134
17.647581 -2.1655035 4.4686532
9.0141659 -3.6393838 -3.4001215
0 4.716228 1.8352045
-5.0901017 5.673346 -7.1733847
-4.0333166 5.4079719 7.6330109
-7 4.9712358 -3.4679134
13.052264 3.9075861 -3.0506079
0 8.7110443 1.6364874
29.29784 4.6873331 0.72024608
0.49775061 2.3672748 -4.3850765
9.641592 1.6637614 4.6764812
24.152739 4.9027958 -0.73821843
24.485298 -4.4672084 2.1689913
28.322056 2.5855124 4.2644815
-3.8897269 6.1306834 6.3812675
25.551426 -0.45427278 -4.9401836
3.2380996 2.2630987 4.4282274
-6.3749261 -5.5553141 7.3778119
-7 4.0194297 -5.3267441
5.2545948 3.8567128 3.1169047
15.153114 3.0626814 3.8983212
-7 1.7375436 4.6074371
3.5002627 3.8391266 -3.1398227
-6.3758187 2.7805924 8.5
10.968579 1.32336 4.8174801
22.249407 -3.1363924 -3.8417587
-6.7299781 -7.629209 3.7858076
20.160458 -4.9662051 -0.25665283
25.304371 0.52060169 -4.9314499
3.135246 -3.9200966 -3.0343046
14.520445 4.7753372 -1.4251015
-6.4969335 7.5918856 -3.8504496
29.802204 0.55868322 4.2042446
2.8198864 4.9433928 0.42990294
-7 2.5426292 0.65907383
-7 -3.1356764 0.051375866
-6.9546161 8.5780668 -0.0041476032
-6.2585821 0.14238352 8.5
-6.5220165 -9.0430088 1.3370937
0 -3.4178255 -7.4606252
-3.3061635 5.3447037 7.7425938
6.5912266 -2.9880061 -3.9556241
-3.0568855 4.1737351 -8.5
5.6625972 4.940033 0.45541996
4.7336311 -4.8550973 1.1004618
26.900833 2.3445671 4.3944826
16.855156 -3.1360531 3.8420191
2.713377 -3.6344194 3.4065909
-3.8665528 8.2829571 2.6535039
-6.5371943 -4.8905573 -7.8715205
13.707306 -1.8672096 4.5922103
0 7.9638 -0.72155821
-1.7075101 -1.5245545 8.5
0 6.3026676 0.41712785
12.500963 -0.1343758 4.9823065
27.477121 4.8409166 1.2081548
7.4821873 3.4449928 3.6049519
13.222632 0.67014062 4.9117594
29.202457 4.49437 1.7861677
20.728903 3.6790895 -3.3483782
-7 3.8208251 -3.9902954
-7 5.2675219 -1.6090143
29.757841 -2.3254309 3.6169868
27.047298 3.9401784 3.0081351
-6.1675601 -3.0439403 -8.5
30 0.050473332 -0.8782838
-7 6.4410686 3.4212575
0 4.4750881 4.3365889
-7 7.0107312 4.0180607
-3.7273715 7.2556353 4.4328456
-4.5568495 -1.4881537 8.5
-1.964371 -2.0634742 -8.5
22.299471 4.9207864 0.60158503
-7 -2.620435 5.5197806
0 5.8818779 -2.0009768
28.196756 -1.171077 4.8457985
-6.0879102 4.1682725 -8.5
26.674597 -4.4900675 -2.1138048
-7 -2.0059085 -1.0756602
-6.8660407 -3.507225 -7.9179091
-3.3210356 -1.171032 8.5
16.573223 3.7161353 3.3001008
6.1272974 -1.591512 -4.706408
14.9694 4.8611474 1.0545112
0 4.8124962 -2.4162252
-4.8519263 -6.7407002 -5.3247147
3.8893912 -4.9448223 -0.41904521
27.520435 0.5653376 4.925559
1.608422 -3.8534319 -3.1211801
-7 2.3003416 0.24781799
-6.0642462 -4.5368915 8.5
25.954216 2.0854211 4.5018244
-7 -4.6955924 0.2203567
-2.5602539 -5.5292745 7.4229202
-7 -1.3944436 -7.6362576
0 5.435967 -4.1945734
-7 4.6918001 2.9539564
15.135901 -4.1440783 -2.7424185
11.134269 -4.8889771 -0.84316456
13.826528 -4.0456161 -2.8707311
2.6518652 -0.19591533 4.9742026
11.356169 0.8230747 4.8916221
18.124132 -4.8971996 0.78071696
20.214596 1.375955 4.7956944
-7 -4.9293003 -3.7464077
6.7485781 2.8868599 -4.0332398
-7 2.6294529 2.3470817
7.9543839 2.9005077 -4.0227671
20.588615 -4.5383029 -1.9973538
7.336072 -4.9601679 0.30250502
-7 -5.6522412 3.27175
0 7.1309538 3.2748363
3.8964653 -4.9531693 0.3556537
15.050176 -4.4315338 2.2551172
5.7171321 2.8638456 4.0508995
22.6688 2.5268278 -4.3095136
29.234268 -1.3668438 -4.6339264
0 -9.4955997 -0.31961706
13.103393 -4.9821382 0.13564956
0.35567379 4.683424 1.6470008
0.067761749 4.9983087 -0.012846884
3.6283531 0.5514515 -4.9273877
28.56679 2.0423841 -4.5196509
-6.9714203 -8.5034542 0.34980619
19.736916 4.9156275 -0.64076495
0 -1.3287197 6.6397519
8.5503263 4.9549913 -0.34182
-7 5.8900299 2.4335408
30 1.8975883 -2.1451662
0.29190731 4.4018245 -2.3268416
26.545094 -2.8925605 4.0288653
-3.157299 -4.6523561 8.471571
-5.8700924 -3.1445813 -8.5
-0.016955564 6.043602 -6.5320954
-0.9098866 9.0460377 -1.3318391
15.21898 -0.79717863 -4.8950319
-1.5282929 2.7167397 8.5
0 -3.1690984 8.4049263
27.165941 0.57068574 -4.9248552
-3.4851222 8.2155552 -2.7702425
1.0117984 4.3988366 2.3340552
6.5683727 -0.43780437 4.9423523
-1.2402717 -2.2748771 -8.5
0 -5.3323679 5.9458656
0 -7.4995537 3.2583289
17.711905 4.6051998 1.8358488
-6.5160995 4.4219499 -8.1894979
-6.5277514 -3.411622 8.5
-6.8953457 1.9331651 8.4267902
30 3.7099838 -0.40921539
28.819071 -1.8362834 4.60502
25.77882 2.2343507 4.4401355
22.691795 -0.32937959 -4.9566293
0 -0.17497498 -5.2981477
30 2.2625821 1.5485989
-7 -3.6477218 2.9795203
26.137238 0.23607077 -4.9689159
10.591529 -1.4609444 -4.7604904
24.268379 4.9735327 0.20100483
12.285315 -4.9686527 0.23806621
17.966732 4.8440537 -1.1843247
10.917674 -2.0280337 -4.5255947
-7 3.3426056 -0.078757763
29.728128 -4.2321067 0.90972924
13.815523 4.767447 -1.4441493
0 4.4563184 7.5350947
0 2.2018099 4.5262027
-7 -7.807023 1.9296148
16.498865 -4.844625 -1.1799922
9.2797403 -4.2454367 2.6103306
20.489773 0.75550795 -4.9005189
-4.5793958 -0.89166349 8.5
27.841248 0.35736927 4.9529438
0 7.0771093 -0.79673272
-1.795494 3.0945864 8.5
-6.5065427 -1.6211996 -8.5
1.1509079 -4.056673 -2.8563218
18.511133 1.2857965 4.8306932
28.015863 -4.0701637 2.8387411
23.677389 -3.9686899 -2.9709797
0 -5.7290936 -7.0279241
21.999311 4.8894339 -0.83969063
-1.0525564 2.8839176 -8.5
26.087631 -2.9955301 -3.949851
-5.6685348 5.1551251 8.0709486
4.6129518 -4.9783764 -0.16422333
-4.7498798 -2.7797565 -8.5
-7 0.078917503 0.0009932518
-7 7.2927065 4.1713519
1.8516911 4.894711 0.79961324
19.850729 -4.4104576 -2.305999
1.7590996 -4.9496303 -0.38253319
0 6.567452 -5.0548959
-7 1.8079723 0.87643528
26.370462 2.6219199 -4.2365437
0 -1.490988 6.0609078
-7 -4.6068563 3.0810802
-5.6203718 0.19090056 -8.5
-7 -2.8738339 5.6696181
-7 -2.6264434 -1.6162424
-0.73287624 -8.7605991 1.8262233
0 5.4428568 6.131557
-7 -0.54073751 -6.7643814
-7 -1.5610939 -2.8088841
0 -6.7536802 2.3819194
0 4.1664596 -4.0918217
5.7798777 -1.3526776 -4.805336
-2.9354229 4.8942866 -8.353961
-1.7202308 -2.7756662 -8.5
29.837004 1.7243185 3.8390737
-7 -0.13053077 1.8517661
21.667597 -1.8412855 4.6029487
19.297932 -4.4253697 2.2699986
24.384914 3.0835209 -3.8823304
0 5.2352452 -6.6745939
18.693798 -2.6728935 -4.1974282
0 2.7378392 -7.6468225
0 4.9732761 7.1946049
16.505396 -4.8709722 -0.97990012
30 -3.0597305 -1.8869274
13.432874 -2.4683495 4.3432102
0 6.0871673 5.9541082
-3.9687612 -0.064603329 8.5
-7 -5.6930389 -5.8873115
2.4061279 3.234844 3.766211
-2.4317482 9.045104 1.3334564
-0.81459308 4.4422574 -8.5
30 3.1839275 -0.29457569
25.377813 -1.4164019 -4.7789412
11.412455 4.3017869 -2.5368967
-6.1170845 8.1005173 2.9695067
0.059627358 -1.7222987 -4.6522341
-5.2062821 2.8229849 -8.5
14.39412 -2.2147369 4.4482598
-7 -2.5384431 -3.0378847
21.509989 4.1878452 -2.6853828
21.012251 -4.8612947 -1.0533948
12.505295 2.686908 -4.1866746
0 6.0895844 0.046728089
18.952845 4.8207641 -1.3154311
10.004045 4.6832142 1.6475058
11.389688 3.2566562 3.7494731
16.940994 0.73565179 -4.9031334
28.980536 0.50677919 -4.9332705
1.5592039 -4.8612933 -1.0534048
13.503575 2.8867145 -4.0333514
19.061136 1.8260951 4.6092405
20.608328 -4.8842478 -0.87907779
1.375793 2.2965493 -4.414372
20.690914 -4.6886506 1.6343813
7.1983972 4.9297557 -0.53346545
21.980356 -4.478415 -2.1419358
12.29495 3.0133002 -3.9362147
-0.63269228 6.6851034 -5.4210076
15.05677 -1.7654948 -4.6343422
12.384243 -2.1765988 4.464057
22.66885 -2.7939816 -4.1045108
1.7531025 -2.8336968 4.0740347
30 0.95195937 0.075444341
0 4.8175716 -1.9157619
0 3.7369213 5.7632971
19.742983 -3.0655012 3.8961577
28.28495 4.472858 2.1553521
10.143767 -2.3982389 4.3722506
9.885581 -4.9794807 -0.15583126
13.029927 -0.45472041 -4.940125
-0.82862836 0.65541077 8.5
3.3737581 4.3197074 -2.5135436
20.820431 -0.50594646 4.9333797
11.896741 1.1385124 4.8500867
21.903078 -1.7045791 4.6595736
10.689567 1.881937 -4.5861101
4.2312112 -1.0019858 -4.8680639
-0.40120041 -1.0994843 -8.5
-2.4315944 7.6380415 -3.7705066
29.482662 -1.3177512 -4.3877163
-7 5.7529268 3.3186305
-1.4419799 8.0093288 -3.1274335
23.736698 4.8510418 1.131261
-0.53331095 -6.8665476 5.1067443
24.215258 -2.5508811 -4.2910562
-3.7583563 7.0017476 4.8725843
0 0.39810467 6.9844704
14.907994 4.8153877 1.3284121
-1.19436 2.3087239 8.5
-1.9913148 8.3316641 2.5691433
24.249651 -4.4436932 2.2257612
1.2342904 4.494442 -2.1032436
-7 -5.7000251 -1.9237602
6.8785162 -4.8488388 -1.1479892
0.50315189 -1.8803246 -4.5867777
15.347117 -2.0788729 4.5045366
-5.4559441 0.70103353 8.5
0 -4.323709 -6.7251587
-4.7431045 5.8453488 -6.8754735
-0.98736131 -1.0950551 8.5
-7 -7.0766439 3.6004663
0 -7.264214 3.7736218
-0.92288929 0.29918051 8.5
20.571898 -3.3326406 3.6911662
1.4008137 0.2105251 -4.9722791
-1.1317031 -4.6906719 8.4557047
14.120173 4.7383699 1.514348
-2.1435564 2.0887055 8.5
-6.9867945 -5.7719736 -6.2219334
-1.2452928 -8.0693979 -3.023392
0 -6.5895042 -3.2267497
0 -5.8731461 -0.36484647
14.74047 0.16192017 -4.9786792
-5.1382298 9.5173082 0.51559263
9.3618603 -4.9525356 0.36046636
-7 2.6332948 5.8060479
2.8531671 -4.914928 0.64607716
30 -1.24321 -3.1588778
3.9235654 1.0853471 4.8570871
7.0874953 -4.6841021 1.6453625
-7 1.8648183 6.4897661
0 -4.4821067 -7.2311001
13.522974 -3.9611449 2.9808116
27.6677 4.4244308 2.2722654
-0.18120947 6.6469831 -5.4870329
0 6.4172935 -3.7348831
15.556601 -4.3029022 2.5354431
27.045519 2.857213 4.0559893
23.376465 -4.3652167 -2.4152212
-7 0.19447647 6.7217784
-6.975667 -4.1303639 7.4559879
10.763802 -4.3097935 2.5264626
-6.2369618 5.8387384 6.8869114
-4.0992255 5.7994328 6.9549913
4.9927464 4.9115515 -0.67172045
-5.1560211 9.3641834 0.78080785
3.5809536 2.2348244 -4.4399395
-2.4985397 8.1773014 -2.8364985
0 -9.1940594 0.45874703
21.732002 -4.4020643 -2.326263
-7 3.7747896 4.7681131
-7 4.9678168 -1.7853972
28.11088 0.86278671 -4.8863926
-2.6900628 7.9853678 3.1689334
19.735859 4.846159 -1.1683424
15.088984 -4.9793262 0.15700886
25.717718 -0.94930464 4.8750005
27.139277 -4.9862528 -0.10440452
29.035542 4.4856977 -2.1243541
-7 -8.0540361 2.1329894
-1.0688107 6.0498457 6.5212831
8.3133984 -4.0255322 2.896904
0 7.0718288 2.7601292
18.685064 4.3905501 2.3540602
12.037395 0.31690258 -4.958272
0.83440518 2.8539317 4.058507
24.272038 -4.4468389 2.2181673
-4.3554788 -1.8487283 8.5
-1.0229045 3.4989605 8.5
-0.83348793 3.5710375 8.5
17.719652 -0.62737662 4.9173908
0.28631568 4.9424496 0.43706989
17.288704 -3.391993 3.6456211
5.4780974 -4.5608492 -1.9429218
-6.2873287 7.559288 3.9069142
12.051509 -4.4630094 -2.1791282
27.878731 1.6692162 4.6742215
4.8716683 -4.6306763 1.774345
-6.6728234 -9.0213776 -0.34448394
-7 -3.9201982 6.222743
0 6.4573183 1.9177806
1.2957567 4.4759793 -2.1478171
-5.3314648 -8.2994947 2.6248679
9.2846632 4.3738976 -2.3942633
1.3527815 -4.9935975 -0.04862358
3.1097174 4.8926477 -0.81528479
-1.4542111 -0.81266212 -8.5
-7 0.57600749 -3.5175362
0.54815882 0.83870554 4.8895636
0.030875327 -3.3178067 -3.7025492
29.727398 -0.52046418 -4.2840762
-2.8722336 6.2248907 -6.2181025
13.739767 -0.1380012 4.9818287
-7 6.3840551 -0.96773773
0 -6.5328465 1.1167672
0 5.36905 1.6815753
-6.9385886 8.4123192 1.4741856
1.2219423 -4.4032769 -2.3233356
-3.7139194 -2.0767407 -8.5
3.6982446 2.851018 -4.0607433
29.086605 4.0546169 2.8482447
0 0.075796366 5.3799419
-3.2641048 -7.9359674 -3.2544961
-7 -4.2761869 2.2155218
29.957466 -2.7873797 3.013056
27.609444 1.5012962 -4.7437768
17.508722 -2.8998733 4.0232539
14.73044 4.9635048 -0.27716455
0 1.3731704 -6.8333864
-7 1.6970161 3.1297965
24.639542 -4.3326149 -2.4939284
18.756533 -4.5737162 -1.9118584
21.911966 4.9629955 -0.2810294
0 -8.3104362 0.730115
-6.1173401 -7.9658499 3.202744
7.0478544 -1.5184197 4.7366838
4.2261133 4.5694985 1.9220413
30 0.71217096 1.3397895
-0.18709505 -6.7805467 5.2556992
8.8176107 -4.8847919 0.87494564
-2.0818787 7.0234318 -4.8350191
12.68395 1.3926128 -4.7887945
-7 -6.2805977 1.2393405
30 -2.9440339 -1.6543112
5.725956 -3.738266 3.2712615
-7 1.4714469 -1.4280531
11.576638 2.6679413 -4.2012291
-4.3703566 -5.0497503 -8.2346087
21.182259 -4.9930964 0.052428693
-1.8359529 -7.6692104 -3.7165215
3.6894689 3.692637 -3.3307235
-0.19569106 -4.2689238 -8.5
11.174591 -4.3429275 2.4690318
20.597506 -0.17673026 4.9767289
-6.228179 1.6245891 8.5
-1.4548841 5.283761 -7.8481503
-7 0.86047065 -7.7780228
8.3756723 -1.7411168 4.6444392
19.199966 2.5481274 -4.2931695
9.2000532 3.6519892 -3.3836946
2.4954395 -4.0802183 -2.8256383
-1.4664266 -9.2197676 1.0309377
25.050499 -4.3821411 2.3743622
14.514202 4.6592011 -1.70548
-1.0731599 -5.2385826 -7.9263983
29.091068 -4.6155467 -1.7821953
-7 4.8394723 -4.3585391
-7 -1.1902373 -2.5007768
-4.2061582 -7.8793693 -3.3525271
30 -0.57194239 -3.2695756
23.767004 -4.9899883 0.076033741
-7 -2.0409751 2.0232921
0 2.4412556 -7.1429071
8.0972347 4.9204254 -0.60432714
6.6979022 -2.0293174 4.525063
-3.4467306 -8.3641567 2.5128636
-0.76544023 -6.8970566 5.0539017
18.868414 -3.9793937 -2.9570301
0 -7.3271904 2.1944613
-6.748322 8.8373117 0.74931169
-0.54243106 6.9860106 4.8998332
15.407657 3.2471395 3.7567763
23.682888 -0.88967997 4.8828516
1.8174202 2.1412344 4.4787059
8.010561 -2.7833023 -4.1127052
14.307771 1.3723478 -4.7971888
-7 -7.8349781 2.333158
0 2.296263 4.8516259
28.402586 3.2730103 3.7369237
21.357147 1.9055285 -4.5763378
-3.0393064 -9.6243687 -0.33016214
-7 -4.0297189 2.5994124
20.019091 0.80346107 4.8942041
-5.6818948 8.7442722 -1.8545152
-5.0834041 -3.8330922 8.5
0 -3.7257476 3.639364
-7 6.5996475 4.0520291
-1.3225365 8.0442028 -3.0670304
-5.5914254 2.0842495 -8.5
5.659348 -3.5588174 -3.5051136
0 5.6506629 4.4429522
11.124093 -2.6161973 4.2409353
10.546283 4.5972762 -1.8549795
3.8244293 1.7780218 4.6291533
14.296312 0.52520764 4.9308438
0 6.1798086 5.7080564
-7 -5.3662443 3.2908487
26.912167 -4.8311138 1.2826003
0.70911855 4.6837358 -1.6462464
-7 -2.8201337 6.4877834
0 -9.0608759 0.096078426
4.9521594 4.9691172 0.23454192
30 2.9932456 2.4878995
-5.1285992 -1.9523261 -8.5
18.793724 3.9195156 3.0350618
-6.940156 -1.2279856 8.4420042
9.6440372 -3.5143876 3.5517006
15.183735 -0.58859658 4.9224968
29.930929 -2.7470996 3.0771279
-1.2371398 9.6610193 -0.22022085
-7 6.4843988 3.9368923
12.766895 3.785933 3.2091432
19.252497 -4.0650501 2.8454051
18.419197 4.2672372 -2.5819211
27.618464 -4.0595808 2.8525326
-5.0773172 6.1020832 6.4307976
13.905816 -4.9809933 0.14434281
14.461763 -3.5961363 3.4564805
-0.31876129 -6.2722969 6.1359935
-6.3304644 -3.9394295 8.5
-1.4009432 8.8301077 -1.7058309
-7 4.8660555 1.2189226
13.356409 3.337009 3.6878138
-7 -4.1995039 4.077898
30 2.3954711 -1.5119935
23.570322 4.270257 2.5779858
23.074245 3.1792643 -3.8088603
11.304259 3.3539848 3.6747873
27.78249 -0.95293397 -4.8745232
-7 1.0230942 5.2698064
1.1359898 -4.9944353 0.042260226
20.659918 4.3872714 -2.3619761
29.303389 1.5047376 -4.5026388
29.809444 -0.55455595 4.1975613
10.505035 4.8497119 -1.1413572
-7 -0.34335548 0.6295712
0 -1.1415113 -5.9881182
-1.2044686 -8.1518192 2.8806376
20.053209 -1.0321732 -4.864089
7.7459898 -4.8964481 -0.78641874
1.0909166 0.89235628 4.8824992
-1.4060241 7.5814705 3.8684888
-4.8555875 -8.5823288 -2.1349888
14.97556 3.2143893 3.7819068
19.406666 -4.7283397 -1.5385634
-5.5590973 1.7021693 8.5
28.444723 0.90814376 -4.8804207
5.5743237 4.4874978 -2.1200078
-2.4491658 -2.73137 -8.5
9.5548611 0.73792219 4.9028344
25.177595 -1.5797719 -4.7112708
0 -0.29884064 -5.606082
16.804466 -1.6722218 4.6729765
10.421477 -2.5762553 4.271585
16.574858 2.6568413 -4.2097464
-6.6931047 -4.5372782 7.8051052
28.657463 4.8829918 0.88861555
-6.1046495 -6.1079645 6.4206109
-7 7.1962366 0.58604193
-4.2866955 0.2320236 8.5
0 -6.9751258 2.7659564
-6.8156404 -8.7505407 0.52262056
14.61315 -1.5321491 4.7309971
-7 6.3773146 -5.1940932
11.38337 -4.9114771 -0.67228854
30 -3.0679333 -2.3574688
17.393888 0.80383009 -4.894156
30 1.744812 0.3404901
12.957397 -4.9535828 0.35251349
-7 -3.9760442 5.6121016
25.691601 -4.7925901 1.3834493
27.978325 2.6049199 4.249589
15.717247 -4.9462342 -0.40832353
-6.8898273 8.6206779 -0.5329327
6.6616774 -3.8290124 -3.1530032
-7 1.5049253 3.6220462
4.7828403 1.5902702 4.7069225
2.4564822 2.7739332 4.119895
-0.0091574257 6.0716391 -6.4835367
-1.2167053 -4.7498922 -8.4311829
-4.4744539 1.3488088 -8.5
-3.7465303 5.1867099 -8.0162449
25.34239 2.2634921 -4.4280648
29.613308 3.9387374 2.0632129
22.005756 -0.019523723 4.9974289
24.922852 -0.83289236 -4.8903289
16.936039 2.6776614 -4.1937699
-7 -4.4734788 -2.4116886
-3.4575775 -8.4361486 -2.3881748
-1.7411748 -8.2510786 -2.708719
25.385609 0.42895073 4.9435182
3.4604685 4.9638801 -0.27431285
-7 -3.3216226 -4.8473358
-7 5.7459321 -1.5610423
16.387714 -4.776123 1.4232057
-2.3850086 -7.0333328 -4.8178701
8.5810652 4.9317713 0.51816159
-4.618546 -9.4679613 0.60106516
23.729099 -4.6209111 -1.7979193
17.321255 0.87658775 4.8845758
-7 -5.8477249 -5.8928843
12.402203 -4.9038305 -0.73035985
-0.24517414 -0.35591483 8.5
-7 2.8821211 -0.887573
1.3368485 -4.9524136 0.36139363
1.9432027 2.5505078 4.2913427
12.36097 4.94946 0.38382286
22.584839 -0.99545425 -4.8689241
1.3219937 -4.5297523 2.0179968
-7 3.1025443 2.442858
6.4841223 -3.7595501 -3.2435243
30 1.2127907 3.1657946
30 -0.099479586 -3.7174275
0 -5.1020007 -7.7321048
-6.9788356 -8.1681852 -2.3968725
-3.5161111 -7.107707 4.6890535
24.859842 -4.0994735 2.8005462
0 -5.7639103 -1.4531553
6.1581163 2.1343555 -4.481555
17.927952 -2.2022824 4.4534187
0 6.589385 1.7290004
21.621462 4.452126 2.2054036
18.182913 -0.19875044 -4.9738293
-3.3344409 -5.1948509 8.0021439
26.339495 -4.1044846 2.7940154
-4.8300786 -7.8837399 -3.3449609
-3.5312529 -6.0305018 -6.5547829
0 6.4000149 4.8893247
-3.1201823 3.5152063 8.5
2.4103703 -3.8100119 -3.1777635
-2.829268 -6.0702305 6.4859762
-7 -2.7657223 -3.1480966
-1.6964103 -8.2223015 2.7585609
0 -1.5583949 -4.8479576
21.29677 -4.907876 -0.69963288
-7 4.3070993 -3.4075305
13.597569 -4.1753635 2.7016487
-7 3.8070593 -0.20314908
20.186398 1.2822106 -4.8311653
-6.4841442 -7.659831 3.7327697
-5.1607299 -6.1576509 -6.3345532
6.5809789 4.8887272 0.84505635
13.317034 1.3323755 4.8137455
7.5859013 4.906136 0.71284825
0 -6.9729152 -1.9829158
16.297358 -4.6655178 -1.6902294
-7 -4.4551296 -2.9884171
18.165434 4.9115367 0.67183232
19.064167 4.1953163 -2.6756465
-7 -1.2453507 -1.7630229
0 5.0788164 -3.0563626
23.739651 -2.0714836 -4.507597
0.29591817 -4.6213002 1.7969797
-4.0574975 -6.8283987 5.1728187
-2.3519912 8.7269173 1.8845609
20.477594 -3.8165374 3.1692598
10.365078 4.6876845 -1.6367135
0 -3.0553339 -5.9476256
25.905926 2.9694779 3.969842
17.267921 -4.9257069 -0.56421769
8.9572763 -2.1764989 -4.4640985
9.394908 0.97764713 4.8712687
13.795134 -4.0816898 -2.8237214
-6.2250137 5.3524714 7.7291408
-4.3123665 -2.2747784 8.5
-7 -0.035043359 -2.7375598
8.2801027 -0.93229127 -4.8772407
-7 3.9978042 5.0938997
-2.2490671 7.6399813 3.7671478
0 2.204962 -7.0988693
0 4.8803878 7.6349592
30 1.5335258 -2.7524769
7.8366966 3.9960606 2.9353108
-0.45260704 -5.1357555 -8.1044979
-5.3531227 -1.9615707 8.5
5.39961 -0.61063099 -4.9195957
25.342962 -4.730855 -1.5324914
0 2.8666787 -4.9045062
-2.7133975 -0.9639287 8.5
0 -4.7513714 6.7421703
0 -2.0482039 7.1847162
25.685389 -4.3032861 2.5349431
-3.5539272 -7.5421152 3.9366484
-5.3139372 -4.9287858 -8.3274755
-7 0.02015841 6.0769911
-5.6991744 1.526264 8.5
0 -6.1896172 -0.13624963
-6.9835238 7.630053 -3.6749079
-1.5479792 6.7434678 -5.3199196
-4.065196 2.6487179 8.5
2.590924 -1.8999742 -4.578639
-5.1401176 7.27981 -4.3909597
13.898941 4.4651594 -2.1739376
-1.8151844 0.57457662 -8.5
14.54477 3.3320904 3.6915879
-0.61744481 -5.4642859 7.5354795
26.621649 3.2636852 3.7440796
-7 -5.2550673 0.86204982
0 -5.574791 5.875104
20.629478 0.50740796 4.9331875
18.584267 4.9051313 0.7204814
21.335941 -3.6909156 -3.332967
-7 -0.60678148 -7.0425234
0.44593382 -0.47896349 4.936933
20.41988 1.6110382 -4.6983199
16.295118 -3.2900271 3.723866
11.711402 -4.8540807 1.1081789
-6.0886183 7.070498 4.7535
-6.6796136 -2.7353733 -8.5
25.594053 -4.7195325 -1.559827
25.856691 4.4333405 -2.2507555
27.983765 -4.2453818 2.6104026
0.75427192 -1.5289437 4.7323246
-0.53008741 -8.8150473 -1.7319191
0 -3.1621344 6.0718646
-5.3555169 -7.9978328 -3.1473536
18.907816 3.1837599 -3.8054109
-1.6613631 -9.3889256 -0.73795319
-0.49271998 -9.6622324 -0.21100092
-6.892487 2.8278365 8.1501808
20.84387 -4.6756639 1.6657346
0 3.4824483 4.0888462
-3.8516836 6.4857616 -5.7662697
-3.8502517 6.6286602 5.5187716
29.741611 1.8194983 3.9020119
2.4321659 0.76633525 -4.8990936
-2.8594623 -2.778677 -8.5
-4.5161266 5.501996 7.4701586
24.386021 -4.562665 1.9385381
-7.0000005 -7.0419741 3.5433562
26.553448 -3.3290229 -3.6939421
1.6525943 -4.9875531 -0.094527327
12.619624 -1.5996358 4.703043
-6.5644851 4.9796767 7.7440577
-7 2.3353174 -2.6555953
-4.0016561 -4.0083399 8.5
12.654754 -3.8761067 3.0916314
7.6068764 2.6099916 -4.245697
7.6566887 -4.4589915 2.1888285
-7 0.92316157 4.22015
-7 2.8338225 1.9508865
0 7.2169495 0.92123616
-7 4.802001 -6.8189316
13.229339 2.8133335 4.0896606
0 -1.5028087 -6.7018194
19.064493 3.8731534 3.09548
-7 7.0914783 3.4834421
-3.2373323 7.9830689 -3.1729081
-7 -1.138566 8.2211571
-7 -2.6041517 -4.9451613
19.15052 -2.6683242 -4.2009349
26.006613 4.9069791 0.70644635
4.7134576 -4.9397831 -0.45731589
7.3674521 4.8180709 -1.3219339
15.559893 0.80297947 4.894268
-7 -2.2054973 5.7270479
-6.189085 -6.1963248 -6.2675657
17.642525 -1.219934 -4.8393655
-6.9039669 -6.0260715 -6.2062368
14.993142 4.9317989 -0.51795262
-2.6671901 6.2715979 6.1372089
6.8106346 -0.71102262 -4.9063764
-2.3103585 -9.6898479 0.0011507866
-0.71826959 5.0615168 8.2255745
18.095682 -4.9812317 0.14253595
-4.4521384 -2.9320388 8.5
-3.6082594 -1.8686417 8.5
14.458856 3.5871048 3.4682503
0.83255434 -1.7940873 4.622499
15.384624 -4.8705287 0.98326594
-1.3029089 2.9675686 -8.5
0 4.2407875 -7.8327641
-5.9171767 -8.7546034 -1.8366153
-4.1790271 -6.2894697 -6.1062489
10.808534 -4.8685622 -0.99820101
4.1983047 -1.2517164 -4.8351812
5.0854197 -3.8785772 -3.0884116
-6.2977862 -1.5666332 8.5
-4.7990131 6.0871491 6.456665
18.597393 2.9947112 3.950479
-3.3155696 -6.5292988 -5.6908689
20.17033 3.2659945 -3.7423072
-3.6208091 7.1910195 -4.5447536
11.741117 -4.9618716 0.28956297
-7 -8.3108854 -0.7981683
12.765774 0.032707673 4.9956932
26.489483 -1.5716444 4.7146368
-4.5191469 0.96889186 -8.5
1.6114432 3.4697762 3.5859337
0 -0.5136534 -6.6994534
-1.8661145 0.15647078 8.5
29.347353 -2.5784764 -3.9357872
27.511116 3.1714611 -3.8148479
17.988695 4.4202275 2.2824125
-7 -3.0384371 4.946538
15.824901 -4.1343203 2.7551346
8.0259228 1.2641387 -4.8335447
9.3277006 -3.4932587 -3.5679142
9.6490984 4.629221 1.7778579
28.388489 2.3068621 4.4101005
15.220527 -4.0371742 -2.8817325
-3.0559344 6.1449771 6.356514
8.8245201 3.6729927 3.3563242
28.671841 -3.8782613 -3.0888233
25.730103 4.998045 0.014846269
19.135601 -2.3361781 -4.3979573
1.4206464 4.4963636 -2.0986025
26.17108 -2.0863094 4.5014563
4.4767184 3.8986034 -3.0623143
-6.375186 1.2493811 -8.5
21.474628 -0.18154562 -4.9760947
13.097826 3.1214633 -3.8532147
30 2.5339954 -2.4821653
21.259192 -3.3071332 -3.7107391
-0.39396998 8.8547354 -1.6631769
0.65016371 4.9824977 0.13291709
-0.03553376 -7.7183971 -3.631331
29.003538 0.23273544 -4.9693546
-0.43615133 9.6753521 0.11131515
16.133408 0.74662995 -4.9016876
-2.5427949 0.68600416 8.5
20.750687 2.2464285 -4.435133
15.932808 1.1381254 -4.8501377
10.698293 2.6848369 4.1882639
7.5845509 -3.5356905 -3.5352521
0 -6.6691599 -2.9342608
-3.4088652 8.8311787 -1.7039816
18.703566 4.0513582 -2.8632479
26.86784 0.10876302 -4.9856787
2.9258695 1.3860805 -4.7915006
0 2.4558551 -5.5205669
-1.1491734 -3.9304123 -8.5
24.676151 -4.4081259 -2.3116288
7.334919 4.5889349 1.8751175
-2.6929574 -6.6161957 5.5403576
-5.6269708 -0.93521273 -8.5
0 9.0017395 0.20009501
17.762257 -3.9782026 2.9585826
21.481037 1.6693987 -4.6741462
0 5.4700093 -1.3568516
22.247614 4.9513388 0.3695555
-7.0000005 -3.2602749 -7.136735
0 4.2979131 2.9241204
17.448641 0.29245281 -4.9614916
7.035687 -4.8735666 -0.96019644
-1.2341454 5.7573242 7.027936
15.499539 3.1681986 3.8173523
-6.228889 -9.3944368 -0.72841108
15.042824 1.4813683 4.7520304
30 -0.84308982 -0.89169592
26.862562 -3.8950949 3.0668864
12.293635 -3.4584656 -3.5946131
-0.75967574 2.410692 -8.5
-7 -5.0697789 -3.4093456
23.38575 -0.23674475 4.9688268
-4.3025708 -6.4266667 5.8686233
25.719849 4.9758005 0.1837806
0 5.4115129 5.4674544
-1.5180978 6.6916876 -5.4096055
-7 -6.8583126 -2.4192047
13.53246 3.6851568 3.3404717
-7 2.4212713 -5.1012564
10.780246 -4.1649485 2.7152207
0 -7.8936887 1.9758747
-7 7.0427227 -2.5582371
-7 -1.7148962 3.1846569
-7 -8.1195393 0.33992407
0 4.6317916 -6.2354712
-4.3598795 7.1032119 -4.6968327
-4.2363319 -6.7494597 5.3095393
16.112259 4.3118267 2.523813
30 3.4758415 0.93558866
20.38736 -2.370275 4.3838339
0 3.9355421 7.7976007
-7 -4.3958378 -6.1455469
-0.51831758 -7.0533934 -4.7831244
30 1.5385419 -0.62769008
10.802931 4.7648182 1.4504975
4.2129111 -3.2158587 3.7807796
19.282284 3.4825778 -3.5761106
-6.6330991 8.3649883 2.5114393
28.234707 -1.6620324 -4.6771975
-4.8690252 3.3456492 8.5
28.549501 3.6057396 -3.4439657
28.571192 2.3917999 -4.374918
-7 -5.9020214 -5.8455014
0 5.2184372 0.64478391
-6.5586405 3.8866785 -8.3321428
23.65609 3.7887783 3.2054348
30 -1.1623405 0.07695663
0 0.29250845 5.248126
0 -4.9997487 1.4008507
-4.0642738 8.8407841 -1.6873482
0 -5.8018179 3.8075171
21.386282 1.2900585 -4.8301325
0 -5.0805202 0.46987987
22.36274 4.6140966 1.8143709
-3.8642788 -1.7540617 -8.5
0.3732602 -4.997952 -0.015554301
29.808874 3.8551934 -1.7582713
12.43715 4.9762754 0.18017256
7.6087008 4.7083411 -1.5868454
-2.2696824 9.4528866 0.62717253
0 1.7987468 -7.0302238
-7 -4.2432966 -0.2517159
7.6386304 -4.4873624 2.1203349
5.7728429 3.4826939 -3.5760214
7.7746906 -4.3315868 2.4964108
21.549229 -1.1593673 4.8473406
16.195156 -0.47260368 4.9377699
-7 -6.8118558 0.1966238
0 4.351902 -8.4690933
19.443071 1.5845789 -4.7092795
24.363325 -1.5091859 4.7405081
22.452034 -3.6515582 3.3842561
7.3698664 -4.9493961 -0.38430998
25.81242 -4.1036372 -2.7951198
30 -0.096032083 -2.281527
6.0250869 -3.9839332 -2.9511149
-6.2890649 0.24500754 8.5
2.5250585 4.8890181 -0.84285176
29.159601 2.1164777 4.403543
29.641285 1.7783992 -4.0266972
26.889231 -1.5022551 -4.7433796
-6.0128188 -6.8095961 5.2053738
7.5600681 -4.9598579 -0.3048591
-1.9384557 8.2124043 2.7757022
30 -2.3162498 1.2743095
20.365591 -4.8515258 -1.1275839
8.1711721 1.6315281 -4.6898327
-3.7097747 -1.844411 -8.5
0 -8.5669165 1.8836751
11.979426 3.3523073 3.6760745
0 0.50629687 -7.0358019
-0.62798566 -5.0884156 8.186492
11.238287 -4.7779908 -1.4186957
14.369492 3.4546127 3.5975697
-4.2702761 2.8201389 -8.5
-2.8128042 0.84248006 -8.5
30 1.3552837 -2.1226642
30 3.8726065 0.59868944
26.354717 -0.24349786 -4.9679375
-3.6005824 -4.8672009 -8.3747559
0 3.5433269 5.4515476
23.647753 1.7471399 4.6419449
0.50223088 -1.3632309 4.8009648
-4.7832146 6.7964063 -5.2282238
27.930885 4.4781008 2.1426945
0 -0.40502918 -6.054307
6.4325371 3.7805047 3.216217
-5.9334097 -6.0481396 -6.5242243
11.871245 -2.6399193 4.2227321
5.3407054 1.4232262 4.776114
-6.9898043 -8.3128948 1.5555304
19.191841 3.2248125 -3.7739086
8.4950018 -4.8523941 -1.1209924
-7 4.5323009 -1.4466498
13.256215 -2.4430559 4.3536873
-2.5660217 -4.5253582 8.5
23.928596 -3.9744315 2.9634972
-4.995719 7.4116364 -4.1626353
12.53788 3.9693913 -2.9700654
-7 -0.81713188 6.3745589
7.261127 -2.8089828 -4.0929995
0 -5.3969698 -7.0340095
5.4811134 -2.7987051 4.1008859
30 -1.6494874 -2.5488081
30 0.96301949 3.3078284
26.204887 1.2155553 4.8399425
11.310363 2.6430717 4.2203131
-7 0.4320184 -4.5995922
10.218102 4.6621962 -1.6982487
24.888134 4.8809061 0.90445763
6.5911331 0.82228094 -4.8917265
24.018616 -4.4323502 2.2531471
-6.9241862 -8.4800463 1.1491141
9.4180717 -2.7564957 -4.133276
-4.8323655 8.5259571 2.2326272
16.583412 -2.920732 -4.0072479
4.3177152 2.8325107 4.074945
3.2158091 -4.9829111 -0.12978213
16.202984 -0.18287224 4.9759207
23.134748 -1.4786839 4.7531424
-1.1831268 9.1341095 1.1792983
3.3437791 -4.9550667 -0.34124509
-7 -4.2451029 0.15515804
20.063822 -3.0204649 -3.9307168
9.4138584 2.6617284 4.2059965
-5.1332178 1.9481364 8.5
19.192705 -0.49344265 4.9350262
26.737692 4.8330431 1.2679497
19.842514 2.7381341 -4.1473656
14.530722 -0.48351485 4.9363337
17.709991 4.8572865 1.083837
1.5627801 -2.1546724 4.4731393
16.542639 4.4639206 2.1769283
12.803531 -2.0940461 4.4982514
10.804672 2.4865303 -4.3356791
-5.1102734 5.9345193 6.7210174
-6.618104 -9.1431284 -0.13962211
-5.0586791 -2.51266 -8.5
19.647936 -3.5585568 -3.5054531
27.894598 -0.31428292 -4.9586167
1.09009 -4.245575 2.6101508
3.7082069 2.2743025 -4.4235868
-2.5387974 9.5141354 -0.52109033
25.608931 -4.3809209 2.3773077
21.028629 4.9947786 0.039651923
21.468006 -4.9139996 -0.65312946
18.312466 -4.9227581 -0.58661228
11.718865 -1.6543319 -4.680387
-7 -2.753005 -0.4947269
13.812835 -4.324172 2.5077257
0.52914274 -2.5463142 4.2945604
-2.1065476 7.4290552 -4.1324735
25.566721 4.448472 2.2142251
0 6.9800186 -1.5407697
6.9745898 2.6317804 -4.2289772
7.337677 4.9655781 0.26141858
-7 3.824481 -1.6111608
-3.4156134 -0.33808947 -8.5
-3.9609637 6.8780212 5.0868783
25.397434 -2.7715678 -4.1217098
17.816856 -2.3394401 -4.396606
-1.231037 1.9633698 -8.5
12.946831 -0.97603023 4.8714814
3.9158316 4.5683146 1.9248996
30 2.3041368 2.475049
-4.424212 -5.1293974 -8.11551
-7 3.6769993 -6.8224092
9.193574 -4.8745193 0.95295841
0.18949822 -4.8410425 -1.2071986
-7 3.894948 6.6602812
9.9255238 2.3924556 4.3746462
24.078302 -0.15337777 -4.979804
10.410939 -3.1191592 3.8549826
-0.72935134 -4.0597486 -8.5
28.439518 1.4382799 4.7698789
2.0369136 -2.8183391 -4.0858197
-6.8200927 -8.1934834 -2.808486
-7 5.2662406 -5.9532561
6.8653412 -3.3740113 3.6594198
-5.5512357 -2.1802335 8.5
16.005688 1.546406 4.7250915
12.99403 1.6650153 -4.675962
-7 7.3425908 2.0831358
-6.291748 7.5494361 3.9239779
-4.2314038 -1.2688721 8.5
15.580561 -4.9550939 0.34103662
-1.0742847 6.7032633 5.3895531
-3.9651434 -4.9580235 8.3050289
0.9481861 4.4266434 2.2669239
10.260556 2.1707995 -4.4664593
20.213194 -1.0228353 -4.8653183
11.140296 3.5908275 3.4633992
-3.328351 -8.2220011 -2.7590816
12.448687 2.4628007 4.3455086
21.130369 0.035396263 -4.9953394
-6.9218588 -8.3807573 1.9340127
25.071302 1.9423442 -4.5610886
9.9060936 -4.7053075 1.5941679
-7 -7.5029488 2.8580835
-3.0936222 -6.0404992 -6.5374699
-2.7164137 7.7972264 -3.4947948
-7 -5.8798113 3.025516
7.9470401 -3.2272282 -3.7720551
20.98502 -3.2392077 3.7628627
0 -3.8037064 -6.2234769
0 -8.7144527 1.2388982
-6.7060633 8.9188299 0.68611348
-6.5192714 -9.2475052 -0.64722532
-2.0459058 5.1073399 8.1537151
-7 -4.0115705 7.0471163
-7 2.6876011 -6.3604269
15.996273 2.9821191 -3.9601419
22.42861 -4.5587654 -1.9479518
27.32744 -4.0176063 -2.9072325
17.940216 -4.3626504 -2.4214163
2.2757549 3.8449707 -3.1322064
26.781647 0.95444638 -4.8743238
-5.7540607 -7.0582652 4.7746773
-1.0357016 -7.7376933 3.5979095
-3.1375377 -1.8134363 8.5
12.436342 -3.3136637 3.7057281
-4.6422687 -2.6783996 -8.5
26.279583 -2.1365285 -4.4806547
11.480233 4.8946638 0.799972
-7 -5.1287079 -2.8430064
-5.4356074 -7.2805076 -4.3897662
-6.1141748 -7.0030332 4.8703408
8.4923067 -3.1680682 -3.817452
0 4.6942873 6.1387796
-6.1400423 -1.4676092 8.5
9.0796633 -1.4612333 -4.7603712
9.9714642 1.7489288 4.6412039
27.575851 4.5290456 2.0197029
3.2010467 -0.34108379 4.9550881
14.212326 -2.3749635 4.3818917
-0.82209897 -8.7497158 -1.8450718
17.394556 3.879178 -3.0876286
8.3131485 -3.9171467 3.0381489
-4.563664 -7.7061186 -3.6526051
-6.9999995 0.34921861 -5.2393622
-0.31835333 -4.0736237 8.499999
14.480256 3.7323153 -3.279016
-6.7533088 -8.6991329 1.7332553
-5.4387035 -6.3262758 6.0424953
-7 -5.7339449 -4.3491845
18.360695 1.7668934 4.6337628
-4.6259027 -6.6196413 5.5343852
14.785441 -1.5589294 4.7199039
-7 1.0757586 -5.7209239
27.731087 -4.610353 1.8234092
0 5.6509733 5.5797014
-7 1.4600871 -4.2097435
21.582443 4.8361516 1.2443424
30 -2.4765444 0.066147774
5.8686523 -0.77889645 4.897439
17.672939 -1.8151889 -4.6137576
17.514196 -4.8035803 -1.3569176
14.743709 0.96759045 -4.8725929
23.793964 -3.8281631 3.1541097
10.108581 -4.8180909 1.3218858
6.2744012 -4.4370456 -2.2418108
4.5634422 -0.35862923 -4.9527779
11.059077 -1.3940723 4.7881899
20.096342 4.5937719 -1.8634402
26.226341 -4.9916859 -0.063141041
2.6435385 2.1288109 4.4838519
-5.787735 6.8411813 5.1506777
26.780586 -4.1077671 -2.7897382
-4.7912087 4.709497 8.4479094
-4.0823107 8.1702147 -2.8487737
8.0420961 3.0531569 -3.9056306
-7 -3.8081951 -1.7947114
26.903845 -3.7873454 -3.2073023
21.307928 -3.0233212 3.928525
-7 -0.20317638 -5.1653948
30 -2.2277973 -0.59133279
20.82131 4.4662671 -2.1712642
0.45760241 3.6856682 3.3398051
0 -1.5363716 7.3288441
-4.2924976 3.9828866 8.5
0.67600197 3.9966218 -2.9345794
13.199683 -4.9888859 0.084405296
8.8854923 -4.330009 -2.5001185
30 2.4094396 -2.6890721
29.1534 -2.7449975 4.0503731
30 -3.5095317 -1.9147006
11.696696 4.9988184 -0.0089753512
1.160982 3.5893614 -3.4653091
0 8.3820791 -0.16691673
5.6275568 1.9112896 4.5739517
3.5856943 1.3622739 -4.8013611
0 -5.5884933 3.6402795
5.1979628 4.6750536 -1.667207
2.6777644 4.6038389 -1.8391362
17.616009 0.36584532 4.9518275
5.6374869 -2.9731607 -3.967016
-1.1893513 -6.161727 -6.3275023
6.4439769 -4.9405069 -0.45181984
6.5840921 -4.7277522 1.5399822
0 1.4551377 -7.4861221
9.7100782 -0.34655178 4.9543681
23.886763 0.8627969 -4.8863916
22.612595 -2.531599 -4.3058524
16.07201 -4.504416 2.0791638
5.9924207 4.2970867 -2.5430222
4.224515 -4.9962726 -0.028308855
0 -5.6080828 5.955801
-7 -3.2512488 3.9579732
-3.5078137 -6.9153919 5.0221448
8.2474566 4.8662109 1.0160581
29.759779 -4.2495413 -0.53697419
0 2.6406403 6.0892134
12.568761 4.9279633 -0.54708439
5.4978323 1.6297374 -4.6905746
-3.0090635 -1.4706715 -8.5
9.77073 0.64088458 -4.9156122
-7 -6.5064325 -1.7753159
8.1037397 -3.2123327 -3.7834849
0 3.3987319 -6.6699877
0 5.9821076 6.2702141
0 -4.5004225 -4.2312598
23.884108 -4.9232683 -0.58274078
-7 -3.9870276 -5.8857903
0 0.31223261 -6.2060146
13.017359 -1.6236241 -4.6931067
19.777885 -1.4986918 4.7448549
-4.7160621 7.4835424 -4.0380926
18.130625 -4.9101715 -0.68219936
-5.5865135 -6.9260635 -5.0036621
0 -4.9208355 5.4348283
0 -4.2953501 -7.0376534
1.7605038 2.811785 4.0908489
0 4.8836942 -6.9945545
0 7.8984799 1.8800918
0 2.2209582 -7.8646164
3.9605854 -4.8043113 1.3551522
20.587334 3.6717436 3.3579514
7.1924219 -4.3605986 2.4263704
4.3318763 3.9145644 3.0415142
0.44017231 4.7033038 1.5990061
-7 2.5768681 -2.5071101
5.6744704 1.1292197 -4.8513107
25.937658 -3.51297 -3.5527885
11.04128 -4.2525673 2.6010389
22.77755 -3.1553106 -3.8272419
17.371559 4.3479233 -2.4569707
-0.90154445 5.8891535 -6.799603
18.946981 -4.3013535 2.5374622
22.893991 2.5352118 4.3030801
-6.7544007 -3.4751968 -8.1387062
0 -6.3960629 5.7451615
-3.8459036 2.8995676 8.5
21.987976 -4.9202104 -0.60595828
13.110635 -2.5867603 -4.2635241
13.17117 0.44082096 -4.9419551
6.7897139 3.8948355 3.0672243
-6.4758787 -2.5677934 8.5
23.409374 -4.9302044 0.53005791
-1.2043473 -7.0478916 -4.7926536
17.301167 0.84604931 4.888597
18.358223 4.1496825 -2.7351151
-6.9041591 7.4203396 -4.1475701
-7 5.7294855 3.3689535
2.4202468 -4.8591952 1.0693364
5.0778337 -1.1926728 4.8429551
17.410313 -4.1835613 -2.6909654
28.434925 2.9246311 -4.0042558
4.2728624 4.4371948 -2.2414508
21.66099 -3.9972596 -2.9337482
-2.663316 8.0886431 -2.990057
0 6.352767 5.8365264
2.8058395 2.4123685 4.3663983
-4.5942125 4.341198 8.5
24.997141 0.6337257 -4.916554
-7 0.85551453 1.7321672
29.251022 0.6292842 -4.7461166
7.3105803 -4.481812 -2.133734
-6.7370176 6.9370565 4.9846168
-6.242075 -8.4742165 2.3222549
0.45211589 0.5214808 -4.931334
11.907309 -4.6989222 1.6095841
1.573087 -4.5541091 1.9591951
19.86689 -4.1321106 2.7580142
5.8806882 4.7883048 1.3937951
4.655654 -2.9513116 -3.9837821
0 5.3559289 -3.793288
-1.6633033 -9.023694 -1.3705403
15.661371 4.9806089 0.14726335
25.913532 -3.5626006 3.5001836
29.723034 0.29616418 4.3179698
26.810913 -1.7515688 4.64011
0 3.3474402 4.9441938
28.227741 -0.75863594 4.9001069
-6.9841399 -1.0351275 -8.3912096
-7 6.8094196 0.17519569
-6.1674795 3.8702278 8.5
-5.0292292 5.6620665 -7.1929207
18.260468 -0.55209315 4.9273033
1.7044194 -3.5646722 -3.4974835
-4.7424641 -1.9599463 -8.5
0 4.466382 -5.7381048
7.4168158 -4.8882208 0.84890676
7.1091151 1.6028407 -4.7017155
0 -4.5469189 6.8964834
5.7762098 -4.8996687 -0.76196343
-7 6.4293108 1.8148941
1.7090331 1.6423965 -4.6853309
0 5.7676792 1.5529834
15.468052 2.7332823 -4.1510887
7.3322496 4.6528816 -1.7207372
3.7585204 3.4669027 3.5881391
7.5989375 3.1481552 3.8327324
30 -2.5166554 -2.0831101
-7 -0.2538172 -6.0617251
2.3597257 -4.4188962 -2.2856274
16.660484 4.815248 -1.328748
-3.0674367 -6.8429365 -5.1476436
-7 -3.0247922 1.8065665
4.5663228 4.8617597 1.0498601
8.4340057 -4.2098756 2.656673
-6.6018171 3.3450146 8.4762449
20.239677 -3.1541884 3.8281031
0 7.256813 -1.3535848
17.136301 -4.5274787 2.0234859
29.550804 4.0500278 -1.9564629
0 4.258925 4.9338417
9.2972574 -4.7208171 1.5567254
27.478294 4.8793688 -0.91612941
1.1114615 -4.7279496 1.5395062
23.665546 -3.7658803 3.2352748
0 2.5746508 -6.6575871
0.87018573 2.9154851 4.0112739
10.275588 4.0800629 -2.8258414
8.78687 -0.079703562 -4.9895048
21.551472 -2.9936552 3.9512897
0 4.1037011 3.3293443
29.739706 -1.6318264 3.9817905
-5.4143291 8.8123102 -1.73667
10.61497 4.9987421 0.0095517058
0 1.7685491 7.4809666
-7 3.6533313 -0.44635105
-5.2949839 4.168004 8.5
0 7.2854671 4.0808034
-7 1.9149289 -0.82095599
-0.96653843 5.2076092 -7.9800463
-1.4930825 -6.7862835 -5.2457619
-4.9045467 -3.6503935 -8.5
23.416878 3.1303849 3.8463683
26.990398 0.31095079 4.9590559
3.2382243 -0.042452771 4.99441
15.818078 2.5670266 -4.278667
0 -6.6077013 -1.7651354
-7 3.4620273 -7.1079493
30 -1.0140922 3.3367131
-7 -3.2599101 -6.4683409
26.905674 0.069933668 -4.9907913
26.0788 -4.9439573 -0.42561635
