# .PCD v0.7 - Point Cloud Data file format
VERSION 0.7
FIELDS x y z
SIZE 4 4 4
TYPE F F F
COUNT 1 1 1
WIDTH 1680
HEIGHT 1
VIEWPOINT 0 0 0 1 0 0 0
POINTS 1680
DATA ascii
0 -5.2110195 -0.01993544
-6.2146401 3.5477357 -2.1971812
0 -0.1189976 5.128098
-3.4527807 7.9932899 -3.1552129
-1.4932861 -2.0338304 -3.6518233
-8 -6.066999 -4.9780178
-7.3306804 -0.87744123 4.0724812
0 -3.7820547 -8.335144
0 -5.2059965 -4.9273462
-7.4489217 -6.4765906 -5.7821441
-2.8678286 -1.7939125 8.5
-3.6900895 2.4880338 8.5
-7.217607 4.0992579 -0.67405522
-8 3.6308727 -5.981873
-2.0279384 -8.7307072 1.8780005
-3.5917387 5.732233 7.0713806
-2.7117171 0.11591978 4.172739
-5.2302346 3.6811903 1.9629323
-5.7975535 8.6735735 1.9769603
-2.4979177 -3.7237864 -1.8600976
-0.68074721 -6.6676116 5.4513006
0 1.4812498 -6.5581083
-5.7015052 -5.4062796 -7.6359339
-4.7206583 1.300122 3.9557371
-7.8186679 3.4569862 -8.0267382
-1.1576877 -4.1854525 -0.019353151
-0.20112348 8.384798 2.4771199
-6.3679037 -3.3677645 -2.4317527
0 8.974411 0.3615962
0 -2.7859309 -7.1903696
0 -0.045870662 -5.8947949
-1.7410523 -3.4544389 -8.5
0 8.4267225 -1.0608724
-0.40805522 -4.5581169 0.25694352
-4.4946799 6.0838003 -6.4624667
-8 -6.3376832 -3.5607162
-8 2.0488706 6.4851632
-8 -5.7359533 -1.4810731
-1.5793209 2.4707389 3.3378527
-6.1371713 7.8113699 3.4703107
0 -4.0722327 3.0891931
0 4.491931 -4.8763599
-4.2717195 8.5210018 2.2412136
-0.42761225 3.9717841 -2.2572215
-4.3162117 -2.2922595 -3.4747884
-1.2751943 -5.6397166 7.2316222
-6.7967257 -3.169857 -8.5
-0.011020687 -3.9074099 3.0328913
0 -0.84208345 6.0541735
-2.9101703 8.6578541 -2.0041826
0 -4.2227373 -5.2347078
-4.3019176 -5.8280663 6.9053988
-4.5265737 -1.7392315 3.7738509
-2.9219303 8.8732004 1.6312038
-5.7765036 5.8006229 6.9529252
0 -7.3404961 -0.75745034
-4.0867543 -3.5473378 -8.5
-5.4651551 0.96033311 8.5
0 -1.6914489 -5.5206738
-8 -0.45666423 6.9848003
-1.5837519 4.8793912 8.4955597
-2.4839823 -1.4357604 -3.8995535
-7.53336 7.7110391 3.6440802
-4.6994867 -1.7867448 -3.7541704
-2.6150422 8.4825296 -2.3078458
-0.15880448 -1.1231905 -8.5
0 -3.6237655 -7.6652761
-6.4613881 -7.57868 -3.8733282
-0.11898543 9.7508097 0.11117704
-2.4612901 -9.0888987 1.2576119
-8 4.6086278 1.9240482
-3.5745697 -6.2704 6.1392741
-8 5.3455849 4.211297
-0.092244536 5.8269448 6.9073429
-0.86875808 1.4644103 8.5
-3.8803878 9.5565357 0.44766089
-3.4478345 5.2735472 7.8658285
-3.119086 9.3194561 -0.85828888
-0.40645334 -5.6059408 7.290123
-5.4256191 -7.4535236 4.0900879
-5.2435107 -4.4895706 8.5
-3.4515338 9.3969326 -0.72409987
-8 3.8003972 5.008368
-1.4546294 -4.1224346 0.49801353
-5.8709674 -9.7105684 0.180877
-2.9252145 -7.314981 -4.3300509
-6.7749591 -4.1403513 -8.5
-0.72904474 -7.5065947 -3.9981754
-7.5012355 -3.6289065 -2.0891559
-8 0.33755398 -6.9683375
0 -0.84392285 5.6253438
-8 7.2035837 -4.3748703
0 -4.8690157 -1.7522962
-1.1358113 3.5752933 8.5
0 -4.87885 3.2450192
0 4.9122005 5.2455688
-8 4.4237494 -6.7567501
-8 0.19840933 -7.6154227
0 -3.468786 4.16605
0 9.1344576 -0.61364132
-1.0315953 6.326478 6.0421457
-2.2648578 2.3090639 -8.5
-5.1169243 6.8299065 5.170207
-3.598577 -5.8731565 -6.827301
-8 -5.0251932 3.1452334
-6.3907976 -5.7551026 -7.0317645
-8 4.5225997 -3.3809991
-7.881815 -3.0438309 -2.8539612
0 5.0948572 0.70045877
-3.1937799 9.6099815 -0.35509437
-7.7217169 8.7846584 -1.4990467
-3.9412348 -1.0149742 8.5
0 -2.580518 -5.6049542
-6.9132161 -3.5930591 8.5
-8 -4.2669902 -6.6172018
-7.7038045 -6.5924807 -5.5814223
0 8.06388 3.0120325
-7.9077768 4.1690245 -0.14413586
0 -4.3581934 -6.3790312
-8 -8.0055513 1.64669
-0.035724588 -1.4233898 4.737709
-7.8961606 5.3427839 6.7474189
-0.33585012 8.7389479 -1.8637302
-7.4067388 6.0963082 6.4407935
-8 4.0931125 6.0831304
-8 4.0766907 -6.7862449
-3.2237117 -7.5839071 3.8642688
-8 4.7067256 6.5030403
-8 -4.3667779 4.7384515
0 2.811872 -4.11445
-6.7132092 8.5135183 2.2541821
-1.4749559 -7.0674305 4.758812
-8 4.549468 -0.074705362
0 -3.93154 5.8319044
0 3.0584359 -5.9397016
0 -4.1776309 -4.8762369
0 1.6029408 -7.8732224
0 4.5953851 -6.0522232
0 -4.5503254 5.0448618
-0.046655312 5.9485526 -6.6967158
-8 -0.11126976 -6.4091988
-0.70103741 -5.123208 8.1262188
-8 0.88880938 -4.1771364
-0.3508077 0.56588078 -8.5
-5.3744917 -1.3878224 3.9194105
-8 -4.4234371 -6.9388299
-3.3072162 0.043852411 4.1822271
-8 -6.4991474 0.061050177
0 -5.8999629 4.2647243
0 4.4083514 -8.0714731
0 2.3571591 -7.8614192
-8 3.8969903 3.8484056
0 7.8141904 2.7595468
-0.60964954 -3.4024253 -2.7161112
-8 3.9305105 1.4348981
-3.8710797 6.1914129 6.2760816
-6.200696 9.216938 1.0358442
-2.6183193 -5.1432538 8.0914993
-8 8.3724422 -0.91967726
-5.6008439 6.6011438 5.5664225
-5.6497736 -9.7960739 -0.029979574
-6.1995368 5.2074881 -7.9802456
-5.9579926 -4.0150356 1.1569645
-8 -0.01369426 7.4170485
-5.5553193 4.1319027 0.42609465
-2.3548908 -5.5269289 7.426971
-1.4465791 1.4870899 3.8782921
-2.0601153 4.2247634 -8.5
-2.7188473 -2.7897413 -3.0931029
-4.5052824 -8.9883766 -1.4317174
-5.973299 -6.3004665 -6.0871944
-8 -3.2905765 -4.2619185
-2.0503676 -4.1031981 -0.64412928
-7.052886 -8.2046566 2.7891312
-3.5654376 1.7167553 8.5
-1.4174092 -6.8464603 -5.1415334
0 0.93976772 -5.5434513
-4.2041421 1.6522079 -3.8098974
-2.7672675 3.1822498 -8.5
-6.5253997 -4.0189557 1.1475006
-0.49246389 4.4592624 -8.5
-8 3.6713753 -7.315011
-1.8851285 1.9777269 -8.5
-1.4538252 -3.7889624 -1.7027493
-0.083262853 1.5281351 4.6433091
0 -6.23172 1.7977316
-1.4652253 -1.1657633 4.0113907
-4.1374679 5.475059 7.5168071
-7.2101288 2.4453964 3.3572967
-2.8047976 2.3179975 3.4550414
0 -8.6800308 -1.1882741
-2.3541832 4.4407673 -8.5
-3.0550749 -6.1191349 6.4012666
-2.089138 8.5477877 2.1948204
0 -8.1904564 -2.745266
-4.7371469 7.1997695 -4.5295949
-6.812108 -4.1291156 0.44726562
-5.9924121 4.0598946 0.97304416
-7.7636523 -3.6488512 -8.0494957
0 -4.4397974 8.3739014
-0.26034206 6.9962234 4.8821435
-6.5616689 -7.7377439 -3.5978293
-4.563127 3.2036257 -2.6456878
-0.85632879 -3.9185283 -1.3899522
-1.4798543 7.3925085 -4.1957726
-6.1213226 6.7599483 -5.2913661
-4.288002 -6.9054356 -5.0393934
-6.3207979 4.1852722 -0.020718006
-8 5.769629 -5.15904
-1.5897712 3.9347548 -8.5
-7.9648533 0.93302333 8.438056
-5.935575 5.9467449 6.6998405
-2.6099703 4.8683958 8.5
-0.28009772 1.2312777 4.5550451
-3.3465827 -0.64631122 4.1029105
0 -5.6686201 1.6094869
-8 -3.7999694 5.0564075
-8 1.9999428 -8.0468102
-1.4474578 -3.6899693 8.5
-2.7161632 -3.9348764 -1.3504839
-8 -2.1759102 -6.9228296
0 -3.3632607 -4.6424236
0 -6.3590059 3.3242457
-2.5853891 3.0492251 2.8469305
-1.0995107 -3.6876354 -1.9473726
-2.0089738 7.0818977 4.7337532
-1.1328198 0.24120378 8.5
0 -3.689579 -5.9638939
-1.0049057 -0.89600801 8.5
-8 -7.8789778 -2.6024034
-3.2280641 0.34509802 -8.5
-3.5050926 -2.2709379 -8.5
-8 7.1606936 -3.6844633
-5.6459031 2.5094986 3.3081148
-8 3.3238673 4.9614897
-7.4458003 -3.9962127 -1.2024065
-7.1457429 7.5109525 3.9906311
-2.4870198 -6.6878719 -5.4162083
0 -4.2829204 8.0366859
-0.19597767 2.2233698 4.2343779
-6.0974584 2.653306 -3.1977806
-0.086387038 9.7564392 -0.10142636
-8 1.9743953 -7.8706222
0 -1.9790176 7.5924501
-6.6868839 1.4953355 -3.8748767
-4.3341608 8.8662052 1.6433188
-2.0621374 -7.4444532 -4.105804
-3.8437412 1.9580644 3.6832068
-4.982626 1.2612927 -8.5
-7.7455468 7.6624846 3.7281761
-5.2847986 -0.55424863 -4.1150308
-1.3773717 5.4896307 -7.4915733
-6.7495365 5.6094933 -7.2839684
0 3.3611701 7.6125927
-5.5969243 2.1766071 -8.5
0 4.7246976 6.651782
-6.8792272 -3.586719 -2.1463711
-3.8958654 0.82287812 -4.0796647
0 2.7991281 7.390615
-5.4909587 3.2332613 8.5
-5.6272292 -1.930214 -8.5
-0.56038082 -5.0734482 8.2124043
-3.7984626 -7.7110963 -3.6439762
-8 -4.7060881 -6.7014704
-1.8224112 -5.958611 -6.679296
-4.0653143 9.487793 -0.56672698
-7.7355261 8.8925161 0.49795952
-1.0460929 -9.2579269 -0.96485525
-1.7299061 -4.8500509 -8.5
-7.3082409 1.2437477 -3.9790883
-2.0484278 7.0785756 -4.7395082
-1.3847197 3.6871853 1.9484599
-7.7386041 -7.1790376 4.5655046
-3.021184 3.6684356 1.9937251
-1.6010119 5.5634155 7.3637781
-8 -3.2734995 -6.3753977
-1.2204804 4.0420837 1.0916655
0 -4.4829912 2.4917066
-4.9020472 8.7977028 -1.7619711
-7.3653865 3.2933018 2.5288055
-2.6777399 7.0217757 4.8378849
-8 -4.0524426 6.7400742
-5.275691 0.81672716 -4.0804744
0 2.0587678 -6.8038092
-7.1550207 6.1520057 6.3443255
-8 7.8734345 -2.8435822
-2.5451396 -4.1227446 0.49565518
-7.1680465 6.8131781 5.1991749
-2.3044415 7.5481153 -3.9262617
-8 -3.1756816 -4.9868126
-4.8201733 5.1750937 8.0363503
-5.339478 -1.0157685 -8.5
-0.11780009 9.0723057 -1.2863517
0 6.8178396 1.5664067
-8 -1.2064958 4.1161256
-8 -1.9514514 -3.8028512
-6.008182 -1.4544981 -8.5
-4.3362942 -0.80348003 -4.0822186
0 6.1247625 4.4835863
-7.8680878 -5.0403504 -7.0402422
-4.4577608 8.4120703 -2.4298835
-8 2.7846036 5.574245
-3.7791629 3.0932441 2.789557
-4.4424238 -9.6389694 0.30488613
-8 -0.92898721 -5.3520575
0 3.6386921 5.0132113
0 3.4213111 -7.979177
-7.182951 -5.4931812 -7.4854178
-3.0491781 2.0507703 -3.6448064
-8 -6.0319009 -3.8165045
-7.8518419 -5.3337102 6.850318
-5.2949343 5.8564653 6.8562059
-8 -4.1308136 -5.6517887
-0.067066304 2.9763353 3.8807678
-6.507165 5.14189 -8.0938616
-8 0.62943476 7.6199093
-0.26241264 -1.9759754 4.2655587
-8 -3.5915856 -5.2648268
-7.038919 5.497251 7.4783692
-0.77944493 -3.0427392 2.9084077
-5.1057262 8.924408 1.542511
-4.0783954 -7.3466272 4.275239
-3.4553337 3.3749723 2.422358
-7.7596869 -7.6990075 3.6649172
0 -0.38352299 8.1170807
-8 -5.6593351 2.0471454
-3.3536627 5.064538 8.2278347
-8 -5.0541606 -0.32031631
-0.50678933 9.6135111 0.34897974
-8 -0.97058952 4.7569647
-4.0778079 6.9926853 4.8882742
-0.39342853 -4.8468204 -8.500001
-2.2563949 -1.6424844 3.8139253
0 6.7828698 2.0592632
-2.4240139 2.297024 -3.471133
-6.2629328 8.9502678 1.4977243
-1.4553598 -7.860189 -3.385747
-2.850632 -4.1499991 0.28864256
-7.8964291 -2.9251657 -8.1025009
-3.3764265 -7.0018721 -4.8723598
-8 5.1626997 -5.518095
-5.9679213 -1.5527948 3.8510761
-2.0672803 -3.0876627 8.5
0 -7.33143 2.3766851
-7.877389 -2.865289 8.1626987
-3.4569664 7.1121721 -4.6813188
-3.6504719 1.7935997 -8.5
-7.5169311 0.28825706 8.5
-5.3174896 -3.6595411 -8.5
-8 6.2198625 -3.95189
0 -5.6164722 6.3030562
-0.79368865 2.144691 8.5
0 -4.9211092 -1.6377947
-5.9561467 -1.8503345 -8.5
-8 5.0594764 0.22617149
0 6.8641748 -3.5701559
-8 5.2964911 4.7672386
0 -4.9626741 5.0132446
-8 7.0318708 -1.9366132
-5.5046349 -1.6292125 8.5
-1.9657657 -1.9537985 -3.6849737
-2.7155366 -3.8399415 1.579676
-4.6205783 -9.4601345 -0.61462837
-8 -7.1095667 1.174592
-5.010922 6.7508755 5.3070889
-1.4651843 2.4992218 8.5
0 -6.0219803 2.8636959
-1.2650614 -3.3593571 -2.4427102
-6.0588512 9.5099869 0.52828437
-2.2501185 -9.0919113 -1.2523936
-8 7.5398188 -2.1919546
-2.8831966 1.135694 8.5
-8 -5.0641766 -2.8741488
-5.1630669 -1.5282766 8.5
-8 -5.9282742 -3.8751593
-6.6527243 -9.6114254 0.35259211
-8 6.9383917 2.7477109
-2.1219459 1.8183488 -3.7410793
-7.969677 -0.83369792 -8.4427748
-2.558176 -3.4401102 2.3374584
-8 -6.7728796 2.969563
0 4.0029068 5.4103003
-5.3383822 -9.7992134 -0.0060088546
-4.6794028 7.3358803 -4.2938495
0 -6.3199658 -1.8752435
-4.5276117 0.27290416 -4.152071
-2.3482656 7.2139287 -4.505075
-6.5172367 1.9182121 8.5
-8 -4.6453471 0.59994447
-3.9452193 6.8592472 -5.1193857
0 -4.9242549 -3.2231848
-6.9059615 -2.8671193 -3.0337355
-5.8455558 -3.6990752 8.5
-8 2.3787012 7.1108198
-4.4911699 -3.9044526 1.4239328
-0.10084516 2.003463 -4.4275537
-2.9266064 -5.4696922 -7.5261021
-4.1695185 9.7099695 0.18191323
0 -8.0892496 -2.398128
-2.8222942 8.3703079 2.5022173
-6.6135116 -3.8937848 -8.500001
-6.302814 -5.1940136 -8.003582
-6.0571351 -1.765299 8.5
0 -5.8023868 -4.6566696
-8 3.1800127 -5.941741
-2.3048153 5.2051353 -7.9843206
-3.1867566 -9.4217205 -0.68116152
-2.0894375 1.4911798 8.5
-6.2755451 6.3685122 -5.9693379
-0.3861174 2.8147321 3.606061
-8 -1.9158396 7.8134708
-8 -4.499929 -2.3651412
-1.1119604 -8.6280823 -2.0557501
0 -5.3580494 6.8148804
-2.1733177 9.4927654 0.55811119
0 5.4575267 -3.2560222
-3.2262151 1.9841099 -8.5
-4.3869448 -2.9741685 -2.9447577
-4.2750187 3.8013356 -1.6728785
-1.1630061 -3.8666775 -1.5151292
-8 4.2254539 -6.4427533
-3.2581091 -6.4459095 -5.8352947
-2.9366765 2.8407063 3.0540006
-5.2834597 -3.3561945 2.4468327
-0.79075301 3.1543121 2.7445679
-2.560111 -5.1560726 -8.0692959
0 7.4223204 -2.3646138
0 4.6875196 3.2885964
-1.1023816 -9.2812004 0.9245429
-1.2894056 -2.8939583 -3.0131435
-1.5146017 8.6318874 -2.0491593
-0.81794703 2.9466503 2.9727166
-5.9856939 1.4476188 -8.5
-8 5.0025916 2.4679384
-7.8189998 7.8838482 -3.344774
-7.7774906 3.8504057 1.5544133
-8 -7.9247508 -0.51651752
-4.7394223 -2.4495804 3.3540859
-2.0489068 8.7726212 -1.8054053
-7.3784246 5.176991 -7.9951801
0 5.3619132 4.0324106
-8 1.9615557 -3.9870648
-8 0.39270723 5.7762022
0 -3.4981129 5.6488395
-7.2379756 -7.285737 4.3806992
0 7.1495476 -2.0241077
-5.9552426 -6.7978492 5.2257218
-4.6778154 -1.6991305 -3.7904615
-1.7655723 4.1647663 0.17647448
-2.5632374 1.8028597 -3.7474952
0 -3.9280815 6.1215487
-8 3.7643995 4.5164232
-5.0570498 -7.5200891 -3.9748085
-0.88495272 5.7840171 -6.9816928
-8 0.71113521 5.7071247
-5.7133684 1.6484151 8.5
-0.20165882 -0.44737101 -8.5
0 -7.7012262 -2.0996749
-1.1612513 5.3186278 -7.7877512
-1.8119736 1.5478196 3.853137
-2.7832658 -6.2376404 6.1960135
0 8.2306337 -1.011158
-6.0198593 1.6782519 -8.5
0 4.3223519 2.7334886
-1.4675628 8.9347582 -1.5245832
-6.4243155 5.281929 -7.8513136
-1.0670969 0.77511311 8.5
-3.2308095 -0.8263734 4.0792046
0 4.9487548 -0.60385156
-2.9504683 -1.9727578 -8.5
-3.2582717 -7.6922541 3.6766117
0 -4.1829557 5.3168335
-8 3.4689078 2.6733606
-2.5078356 8.2533035 -2.7048676
-1.4688098 6.3618855 -5.9808202
-6.7876968 -5.465498 7.5333695
-2.8586862 -5.8178568 6.9230828
-0.33721438 -8.4691591 -2.3310065
-0.049216151 5.4051437 -7.6379051
-0.38915515 4.5663738 0.33773631
0 -2.8250477 4.1213059
-0.24054006 7.4751115 -4.0527039
-8 3.1108432 7.6949492
-6.5233774 8.7817097 -1.789674
-7.3051162 4.1564336 0.23976958
-6.5893993 -8.7311478 -1.8772435
-8 3.7910316 3.8621063
-2.7860415 7.9627213 3.2081599
-7.0979247 3.2113576 2.6356101
-5.5122895 3.8185997 1.6311994
-8 -4.5697632 -3.3464689
-1.2427653 -4.427124 8.5
-0.59293312 -6.6231928 -5.5282335
-7.4794617 -9.3845844 -0.12896794
-3.1215606 -7.054986 -4.780364
-2.9511874 2.8594437 -8.5
-0.74157739 -7.2653694 -4.4159794
-8 7.4477444 1.0011976
-5.271502 7.0351648 4.8147001
-8 4.0173664 -5.8037977
-3.7197683 -9.4537678 0.62565875
-1.9154046 2.7008505 -3.1613028
-0.39369637 9.3623905 -0.78392208
-0.96528012 9.4841194 0.57308465
-6.8708711 3.3140225 -8.5
-4.3859644 2.7659583 -8.5
0 -7.506072 2.8233416
-1.7528234 0.23497772 -8.5
-8 -4.0770988 7.1662636
-7.285882 1.1382613 -4.0227828
0 -3.556494 4.6979189
-0.79011703 -8.4010029 2.4490521
0 6.9118686 2.1782386
-0.26648816 -3.5157487 8.5
-5.3661661 -8.4384489 -2.3841965
0 -8.7305355 0.73906636
-4.1953697 -9.508091 0.5315699
-5.3666329 -3.806628 -8.5
-7.3716817 -6.4823484 -5.772171
-2.3535774 -7.6888776 -3.6824598
-5.9758801 -6.5680733 -5.6237011
0 -7.283824 -3.057641
-5.0367346 5.1623826 8.0583668
-8 5.3258247 -0.73093796
0 4.5114465 -5.8634238
-1.7446156 6.3720922 -5.9631429
-3.9069054 -8.9602547 1.4804287
-2.7301123 5.7279797 -7.0787501
0 6.2259378 -4.6446824
-5.645298 -4.1761599 8.5
-6.8918123 3.1392553 -2.7295866
-0.34576574 3.3791957 3.1761513
-5.0770936 -7.3037972 -4.3494287
-3.1951022 -4.1125622 0.57299936
-1.8424714 3.2981913 -2.5224326
-2.4024358 -8.6592569 2.0017526
-8 -2.7674477 -3.5041251
-3.33723 -8.1788502 2.8338194
0 6.4825306 -2.4625907
-3.6713102 1.6232965 -8.5
-8 -5.1178694 4.3411288
-1.6476696 7.1664181 -4.5873632
-3.8729613 -2.3326054 8.5
-1.1317692 -2.3747225 3.4115202
-3.7958963 -4.0389423 -1.0992478
-1.9723845 9.506135 -0.53495795
0 -4.8656406 -3.7518723
-6.7662177 -3.768724 -8.5
-0.57117569 9.0419512 -1.3389244
-7.7916451 -4.7836347 -7.4026718
-6.4803123 -6.566319 -5.6267366
-0.72289741 5.6553545 7.2045379
-8 6.1108484 4.7929306
-5.4748225 -0.86235017 4.0744677
-8 -4.6261482 2.681474
0 5.1658287 -1.0845792
0 -0.008528471 -6.8920846
0 -5.3376632 -6.1951318
-3.5114424 8.8357601 -1.6960509
-1.3891139 -6.1727939 -6.3083286
-1.5391266 3.0766153 2.8112304
-8 6.2933593 0.30192202
-1.7112663 -5.8981991 6.7839293
-4.7655234 8.3761978 2.4920154
-6.3991704 8.3285227 -2.5745935
-4.5760813 2.1690178 3.5693433
-5.5508614 -1.7226815 3.7807062
-8 -6.5118599 -3.6212301
-7.018517 4.1729937 -0.11398569
-6.8905263 2.2501988 3.5070586
0 0.37652206 -6.1569223
-4.8651366 -8.0855656 2.9953907
0 5.3666921 -1.3840631
-4.8196459 -2.9495659 -8.5
-1.6158224 8.8850002 -1.6107647
-1.7916485 -8.7135267 -1.9077585
-4.9205217 2.4852314 -8.5
-5.9870534 2.4316754 -3.3678236
0 -2.7081749 5.9994936
0 6.0962625 -3.4805362
0 6.0928502 5.2184515
0 -6.520277 -5.1414895
-5.772747 -8.5982409 -2.1074369
0 -8.4361563 1.9209279
-8 2.2188206 5.0114465
-2.0669143 8.0053749 3.1342831
-7.6569662 -2.8265488 -3.0648625
-1.5025711 6.9535823 -4.955997
0 4.8970413 5.164032
-6.3094907 -4.047338 8.5
0 -3.6424823 7.096818
-3.2163172 -6.5213261 -5.7046719
-8 5.4027691 3.5525804
0 6.4664669 2.6719732
-7.8442631 -3.7524102 -1.7909936
-2.1283438 -3.1677563 8.5
0 4.6942735 -1.7191513
-8 -7.7250714 -1.5082328
-0.85048866 -2.2086177 -8.5
-3.9071624 -6.7986708 5.2243047
0 -2.2492685 -7.8233838
-0.22081144 4.6596909 0.90752053
-0.44799024 -2.4388967 -8.5
-3.7590444 -2.2094069 -3.5383558
-6.8761287 7.6652198 -3.7234349
-0.19613697 6.1058464 -6.4242821
-7.2580752 -6.4921794 5.7551422
-8 6.9121041 -4.7567468
-5.3169641 5.9093089 6.7646809
-0.66920978 -1.1652865 8.5
-0.72230673 4.1783252 0.7547459
-0.91382462 1.5187716 -8.5
-6.3196096 3.747278 -1.8033838
-5.506773 0.99081439 -8.5
-7.101059 -5.6290092 -7.250164
-3.5513608 -7.3227625 -4.3165741
-7.2461367 -5.1123371 -8.1450453
-6.8341088 -2.96595 -2.9554698
0 -1.4470738 -6.200079
0 6.309588 -3.0097034
-1.0018303 3.9395254 -1.3392602
0 -6.2965765 -5.9917746
-7.6255445 6.6168609 5.5391951
-5.5309949 1.4848478 3.879221
0 4.5060291 4.7220659
-3.8306789 4.1714163 0.12596293
-4.0871243 3.8584762 1.5349293
-4.2570715 2.4671581 -8.5
-0.14090677 4.7319551 -0.96557748
-7.15136 3.0649476 2.826438
-8 -3.0446205 5.7058029
-3.1458566 -3.2866774 -2.5374396
-7.3701639 -3.9271502 -1.3691361
-0.69623035 8.8006229 1.756909
-7.5821667 -9.0756769 1.1243498
-5.3026991 5.0585656 8.2381792
-3.0676978 -0.98122716 8.5
-8 7.5097799 0.040740341
0 5.026536 -1.2356638
-6.2872882 -8.0149279 -3.1177461
-8 -8.1906166 1.6335719
-2.9598653 5.680923 -7.1602526
-8 -1.8044633 6.5786057
-0.76584578 0.38214684 8.5
-0.45109442 -9.6996622 -0.1997658
-3.2653708 -2.6066685 -8.5
0 -1.0616951 -7.8560433
-2.0847499 -1.4688439 -8.5
-2.5968482 -8.6737518 -1.9766486
-3.4045196 -3.1393039 -2.7295237
-5.1018276 3.0287595 8.5
-1.0957354 -4.0641522 8.5
0 1.8875576 -7.3930321
-7.8013091 -0.63568401 -4.1043096
-8 -2.8689349 5.213973
-8 -5.8847122 0.94875622
-6.3220563 -7.4373474 4.1181083
-2.6349165 2.4279151 -8.5
-0.82718128 -5.9206038 -6.7451239
-1.10747 9.3064861 -0.88074774
-6.7200174 4.2883091 -8.5
-6.4681506 7.6073155 -3.8237238
-7.216681 -5.0418448 -8.2671413
0 -5.3473568 -1.1286652
-7.406105 2.7066901 8.5
-0.10792142 8.4966316 -2.2834246
-6.8288317 -2.2214069 -8.5
-8 5.0724769 5.2140789
-8 7.8781772 -0.63096452
-5.6743226 2.2856731 3.4798415
-5.4230065 4.152452 0.27001309
-5.4851093 9.1942387 -1.0751662
0 8.3541908 -0.0078968173
-8 3.7856898 2.8124979
-5.9478154 -7.5306997 -3.9564314
-1.0307138 -4.0761957 0.84922332
-5.2495327 -8.1894569 2.8154514
-6.6636834 3.1732507 -2.6852777
0 4.2223682 4.7707558
-8 -2.4943371 7.1766219
-6.4875998 -7.6667905 -3.7207215
-1.3738358 3.1604586 2.701951
-0.48546058 -4.4290771 -0.64906085
-7.9971132 6.5506287 -5.3145013
-4.187655 4.2139139 -8.5
-7.9578524 3.2834697 2.54162
-6.7835536 -0.57352149 8.5
-2.8708229 -1.5072205 8.5
-8 3.0570118 7.39147
-4.2980647 8.2352905 2.7360678
-5.4512253 -4.0964808 0.69514948
-0.74344492 -1.8732996 -3.7918854
-1.7143521 4.9530849 8.4208736
-2.0492918 -0.67392695 4.0992746
-7.225718 2.9529483 8.5
-5.6094952 6.7455702 -5.3162704
-5.2432609 -0.46936715 4.1262059
-4.7726388 -1.8424096 3.731113
0 7.1471395 -0.81737375
-8 6.0972733 -2.1162741
-6.1301551 -1.6061893 -3.828959
-1.9821991 2.3859844 -3.4028792
-8 -2.7374687 7.664278
-6.6385088 -4.1829648 -0.038250446
0 -5.6021695 0.76519418
-2.7934191 -4.5290189 8.5
-1.3524183 2.9594204 -2.9629188
-6.9851503 -6.8574924 5.1224194
0 7.4377165 -3.9206259
-8 7.3758054 -0.76972592
0 2.7307172 -4.6172962
-5.646481 -3.8204234 -1.6267965
-4.593276 -9.3722782 0.76679939
-5.1430426 1.7245026 3.779952
-6.1597886 -8.9241638 1.5429413
-5.3714666 -3.5883136 8.5
-7.5845609 -1.3498436 -8.5
-7.9874001 6.2803788 5.6940975
-1.7111589 -3.569839 2.1683722
0 2.6893001 -4.6848187
-2.2430413 -8.0436649 3.0679648
-3.290772 3.6483631 2.0421844
-8 4.3750691 0.67191964
-5.1511588 1.5506451 -8.5
-2.3234906 -2.6070652 -3.2332582
-8 4.0686617 -6.7389402
-4.8962379 6.2734399 -6.1340084
-0.19397354 4.0972948 2.4875016
-7.1892381 -8.0296907 3.0921729
-7.3455639 -1.7495873 3.7695615
-2.5918701 3.9116974 8.5
-5.6906638 3.7732673 1.7406408
-1.9377141 2.0100551 8.5
0 -4.3817358 -7.6458168
0 5.1057072 7.6983609
-6.9081149 -5.0706773 8.2172031
-4.033483 -7.5416055 3.9375329
-3.8486216 4.0307598 1.1190026
0 -3.4541836 4.6953211
-7.9423943 -8.4031038 1.4940429
-3.5845242 -7.0788713 -4.738997
-7.9634843 8.2894421 -2.0799985
-6.537581 -1.379568 8.5
0 1.6410936 4.7125955
-8 5.8841925 0.75085545
-1.2035754 -4.0022979 -1.1877158
-5.937674 -5.5395064 -7.4051824
-1.2085271 -0.10342169 -8.5
-8 4.7616825 6.9007344
-2.4929872 3.8709188 -1.5048906
-1.6240255 -6.5509195 -5.6534114
0 4.6930876 4.0522118
-8 7.1945243 -0.58248901
0 4.7621055 -3.4794984
-2.9430397 2.3206685 3.4529922
-5.4049587 -6.5277596 5.6935239
-5.6313276 -1.2834295 8.5
0 1.5465927 4.8036675
-0.035252832 2.4127133 4.3284249
-4.7591681 1.4364303 3.899276
-7.8092523 -3.7996407 -1.6769699
-4.7159147 4.0793123 0.82555556
0 -1.3494934 6.2729249
-6.073154 2.149909 -3.5840046
-3.2664547 4.116272 0.54482222
-8 1.4497317 -6.5896492
-5.7174258 4.9436946 -8.4371376
0 -7.5283437 -0.93494093
-3.1502748 3.0402007 -2.8586926
-8 3.4320259 5.4157963
-4.2330694 -7.2664242 -4.4141545
-0.01104237 -2.3589239 -4.3766861
0 3.489296 -6.8635874
-5.618578 -3.7154076 -1.8803252
0 -0.23511124 8.4704494
-4.4574962 -5.5452509 -7.3952332
0 -5.7779016 -5.8384314
-8 0.064907886 -6.8699956
-0.72224236 1.0225821 8.5
-2.4127097 8.2291536 2.7466974
-0.711851 -3.4677546 2.4645438
0 -0.090378046 -8.0001717
-6.2975063 3.7384233 -1.82476
-8 -7.5693626 -1.0703003
-5.4836597 -5.5096536 7.456892
-6.3455415 -5.8125854 6.9322104
-1.3464441 -1.1497205 -4.0180359
-8 1.6646649 -7.4222994
-6.2934093 2.1504803 -3.5835662
-5.1360655 7.6452532 3.7580216
-8 3.6259089 5.3858652
-6.0272841 -2.5409064 -3.2840176
-1.0181568 -4.1761146 0.09027832
-2.645412 3.0435712 2.8542995
0 -3.119112 7.5545158
-8 -3.4805717 3.2759328
0 -6.8832483 0.053220421
-8 -4.8672695 2.0320625
-6.7625594 -4.9977641 -8.3434887
-8 -4.8071871 -0.84715462
-3.3640282 2.4370766 8.5
-5.3432736 -0.23025942 8.5
0 5.1339173 -2.8953831
-8 -3.8193538 -2.7851806
-0.1691215 5.0502739 8.2525415
-2.1335099 -2.3882329 8.5
-4.5782833 -0.26169443 8.5
-5.5757718 -0.10888815 8.5
-0.26713112 -8.2669106 -2.6813023
-6.239985 -1.963721 8.5
0 -4.4772363 4.6749949
-2.8025842 -0.54888034 4.1157379
-8 7.6559401 1.8041255
-8 3.5829141 3.8873487
0 -8.4399614 -1.2402481
0 7.4730201 -3.6538997
-5.6119466 9.1016865 1.2354614
-3.0201893 4.1532726 -0.2637791
-5.7750177 0.092320666 -4.1758456
-2.0525804 7.6894817 3.6814125
-8 1.4256004 5.0610876
0 7.5630627 0.97324198
-5.1702414 -7.9117112 3.2965081
-5.4096537 3.7444096 -1.8103089
-7.0898075 -1.2508088 -3.9761636
-0.66365528 5.1046014 -8.1584463
-4.2350478 -8.3525162 -2.5330322
-2.6630905 4.0120935 8.5
0 0.27516365 6.2989726
-8 -3.6903789 -2.6616874
-1.1774445 5.9620819 6.6732821
-3.837559 2.7268114 -8.5
-0.31114089 -4.5320315 1.191088
0 -6.8077049 0.6824972
-4.1817617 8.4544191 -2.3565354
-4.7077155 8.7906313 1.7742141
-6.3544164 -4.0837464 0.79187632
-4.5818763 0.89155543 -8.5
-2.724869 -8.5483303 -2.193881
-2.601218 2.9375386 8.5
-6.2474518 -3.844171 -1.5694641
-3.5279906 -3.6861367 1.9509907
-4.9360204 -7.4918528 -4.0237122
-0.18660726 0.17942567 4.7897706
-7.2559361 -4.1459837 0.31914127
-0.14920884 2.4411571 4.1887894
-4.4059439 7.3427563 -4.2819409
-5.7040462 -5.318162 7.788558
-6.882216 -1.4511786 8.5
-0.27482024 6.2160645 -6.2333837
-1.4905409 2.2147398 8.5
0 4.5746107 -5.3263292
-8 6.7287292 1.9002125
-0.8404572 -5.5320435 7.4181128
-6.9534378 -1.4227161 3.9049568
-8 -7.2524462 -4.2807651
-8 -0.81915694 5.6603737
-2.3436706 5.6170731 7.2708406
-5.7621617 -4.5102673 -8.5
-0.38641134 -2.0756316 -4.0912142
-2.0438881 -5.9030132 -6.7755938
0 2.0977106 6.3919182
0 -6.8566914 -3.092911
-0.31461751 -8.4965515 2.2835622
-4.0405912 4.1122637 8.5
-8 4.2661691 1.6714108
-0.00089742604 -6.4204464 -5.8793931
-8 -5.881052 4.3002553
0 0.4782002 8.4731503
-8 4.2444296 3.4444199
-1.528718 9.6287823 -0.32253039
0 0.19115829 -7.8861694
-0.43346533 -2.0999131 -8.5
-2.6985795 -9.7980633 -0.01479726
-8 5.851707 4.8121824
-0.83083463 3.0967951 2.7849288
0 -5.0309987 -7.6207967
0 -8.238575 -0.51759547
-4.8873153 4.1255937 -0.47401926
-0.45560449 6.8608465 -5.1166162
-6.211278 3.5457346 2.1997893
-8 8.1157913 0.77877533
-5.7854633 -7.0652504 4.7625804
-0.5549196 1.498711 8.5
-5.3533216 -7.2667561 -4.4135842
-2.6094816 -5.6616364 -7.1936555
-4.3929162 -7.7493095 -3.577791
-8 5.6915064 -3.6462402
-7.3874021 3.2374511 8.5
-4.4213028 -2.0673003 8.5
-7.4500437 -8.8033485 -1.7521946
-8 -2.6822281 -6.5257211
-6.4325361 -0.38182324 -8.5
-2.0831456 3.7598214 -1.7731011
-7.9768949 1.0788306 8.3980045
-0.46860361 4.4318118 0.7563259
-4.3598061 -0.30617058 8.5
-4.7282043 -6.1807523 -6.2945423
0 6.5599332 0.87931126
-1.1904415 -9.5225477 0.50652927
-0.93810475 4.118639 0.52684337
-0.73775923 8.6823854 -1.9616969
-8 1.5398601 7.9413657
-7.8964906 3.8074338 -1.6581558
-8 -4.7537313 -6.9376388
-1.1325265 7.7707725 -3.540617
-7.6129785 -4.1857061 0.017423149
-0.39148021 5.0266113 -8.2935257
-2.9508584 5.3049445 7.8114481
-2.5880129 -0.06250786 -4.1797709
-4.910943 3.7364745 -1.8294652
-1.9114952 -9.5166912 -0.51667154
-5.9963923 4.9433875 -8.4376698
-3.7240403 -1.3731102 -8.5
-8 3.4337945 -3.8375731
-8 2.6249208 -5.7270012
-3.6970749 3.7180481 -1.87395
-8 -7.3772082 0.4067691
0 7.1812744 -2.6802967
-5.7691679 3.9063528 -1.419346
-0.7487421 -4.1154232 1.0317503
-5.9810615 -9.3166447 -0.86315477
0 5.1558189 3.2094753
-8 6.2751141 -0.91501284
-5.3728333 3.2530766 8.5
-8 -6.4044914 4.3156528
-3.1877627 6.1687336 6.3153644
-8 2.4228654 5.5467148
-0.82825452 0.73790747 4.0908513
-8 -5.2300482 5.8708777
-5.9419861 6.4347167 5.8546734
-5.7276587 3.6790104 1.9681952
-6.6269989 2.509624 3.3080187
-0.01573783 -3.1089969 -8.5
-3.5415561 1.9431953 8.5
-2.3469172 -4.1251221 0.4775987
-3.8168051 2.0899642 -8.5
-3.7064517 -7.7300434 -3.6111603
-7.4869742 9.2871418 -0.77038229
-7.9824929 3.9877353 -7.5023823
-4.5941024 2.9127636 8.5
0 5.6398706 -3.3533039
-6.112433 5.3097887 -7.8030605
-2.4038241 -7.0423541 4.8022432
-0.18202962 -8.1819477 2.8284583
-6.5939975 9.4438887 -0.64277029
-4.219502 -3.3832517 8.5
-0.88539493 0.24788475 -8.5
-6.1797996 4.137476 -0.38376436
-1.0403041 -5.2105837 7.9748855
-4.7572427 -8.9660549 -1.4703784
-6.7598481 -5.3760414 7.6883097
-7.7555103 -3.3207288 -2.4930577
-0.22444089 -1.276933 -4.59586
-2.0501776 -2.8734903 -8.5
-2.2870073 1.9166069 3.7003791
0 -5.2278161 -4.5245352
0 6.8387685 -1.705799
-0.28596509 3.967361 -2.5070243
-0.46004027 7.910903 3.2979093
-4.2189169 -7.6918364 3.6773322
-1.0204096 4.4305611 -8.5
-6.2343674 9.7821398 0.056912668
-6.9470344 4.3389478 -8.5
-0.49167407 -4.0524764 1.8964497
-8 -2.056854 5.8336983
0 -7.7928624 -2.2593443
-2.9555197 -6.9309297 4.9952316
-2.4114439 5.4990525 -7.4752536
-3.2107644 7.792079 3.5037136
-7.9032354 -4.151257 0.2790885
-0.38015598 -2.5295644 -8.5
-8 -0.85443348 6.6363339
-7.708859 -3.0782497 -2.8091006
-3.2334063 -3.1015229 2.7787669
0 5.8134151 -4.8068891
-6.8539577 5.6168647 7.2711968
-0.67082304 -3.2518067 -2.8128014
-1.3260775 -4.1264043 0.46785998
-8 0.75463659 -5.9036303
-2.2232814 -1.7176999 8.5
-5.6783452 -3.9397995 8.5
-4.1431975 -8.9570942 -1.4858978
-4.3127346 -3.7045684 -1.9064933
-5.0257859 -7.4143152 -4.1580095
0 -6.0442915 -4.1552444
-3.7976065 1.6141313 -8.5
-2.3243482 -7.1890869 -4.5481009
-7.9097795 -2.11728 8.3775539
0 5.0057812 8.0900545
-8 -3.8118012 2.5264583
-8 5.1091223 -4.0332479
-6.0517402 1.6104519 3.8271933
0 -3.9015598 4.9203825
-5.3675141 7.0209799 4.8392677
-0.12325931 4.2364192 -2.4068344
-0.89203304 -0.33663821 8.5
-2.6582272 -5.1638899 -8.0557556
-3.9901245 4.0613508 0.96198368
0 -4.0621538 7.1961145
0 6.1599422 0.14596812
0 4.8740644 -6.1495738
-5.9273572 -8.6371908 -2.0399745
0 4.491982 -2.5178397
0 3.0299401 -5.602253
-7.4852667 -6.2304711 6.2084231
-7.2809172 -3.6910796 1.9390578
-8 6.2422009 -1.8384317
-4.6054869 0.70642197 -8.5
-7.8637114 -8.5158157 -1.6730931
0 8.8097811 0.63735038
0 -8.8655949 -1.3059121
-5.9210773 -9.7432384 -0.12429027
-8 -1.1145808 7.6845851
-5.8622274 0.081636667 8.5
-8 6.6491871 -0.2106719
-1.1055324 -5.7838812 -6.9819279
-8 5.6226468 4.8569136
0 -6.2023964 5.6303067
0 -0.57744408 -7.0370035
0 -4.5323062 -3.6590395
-7.0717363 8.8958263 -1.5920231
-1.4167467 9.1770515 1.1049314
-7.0661879 9.1739979 -1.1102259
-8 -7.3119211 2.9899096
-1.9890997 5.6345825 -7.2405152
-6.3576736 -0.24502021 -8.5
-2.4069674 5.7598448 -7.0235591
-6.7488627 -9.7137146 -0.17542724
-1.3805273 0.24737501 8.5
0 -6.0207281 6.3264518
-0.60603482 3.8622398 -8.5
-6.1261816 -7.5361814 3.9469271
-0.78518897 -5.2310767 -7.9393902
-3.0624385 2.6378849 -3.2096126
-4.520627 -1.9465257 -8.5
-3.8998282 4.8207521 8.5
-8 -4.9588785 -0.025593996
-0.082894586 1.845072 4.5124245
-2.4172795 3.011816 -8.5
-5.1645393 -0.60895038 4.1078291
-6.7217321 3.9029176 8.5
-5.6398792 5.2410126 7.9221792
0 -1.0106127 6.4116526
-0.014270436 4.4015064 2.290638
-1.5469637 1.6416707 8.5
-1.1211112 -7.3615413 4.2494092
0 -6.7285881 -1.7863977
-6.6929078 -4.6739235 -8.5
-7.5033302 -9.3500767 0.077065714
-8 -5.6051569 1.181098
0 1.2739629 8.0890846
0 1.8772345 -5.1599073
-0.82321995 -3.3925207 -2.3994856
-7.8551903 -3.2408204 8.0483961
-5.2527099 -0.42791843 -8.5
-0.044688746 -0.82502365 8.5
-8 -7.6606531 -0.33407533
-2.6046617 4.3351536 8.5
-5.9773722 -7.8363581 3.427021
-3.0076263 -3.518647 2.2350948
0 6.4419503 -5.4683952
-4.0783515 4.0233622 -1.136862
0 -7.7280436 -3.1777577
-5.0905528 9.4039326 0.71197152
-0.971816 -7.763793 -3.5527053
-1.14001 -7.8934374 3.3281615
-3.1238887 -7.241992 4.4564686
-8 -0.54747748 8.0973454
-6.6036453 -3.1698494 -8.5
-6.0762353 4.1521344 -0.27242333
-6.6981759 2.4439037 -8.5
-3.0159819 -2.2059143 8.5
-4.9372849 -6.9685187 -4.9301314
-8 2.2012255 -3.5655971
-7.1583657 3.261461 8.5
-8 0.51350385 -6.3969121
-3.4373064 -0.31388426 -8.5
0 -6.723731 5.1146936
-2.9102623 -4.1802311 -0.059009217
0 -7.4725695 1.2801619
0 -5.6058741 -7.0066104
-8 -5.7619729 3.2982216
0 -4.6308351 3.7860551
-5.7413135 4.0158205 -8.5
-5.4238124 3.1650877 2.6959174
-8 2.0829048 5.096694
-7.1649046 -5.5468998 7.3923798
-3.4715369 6.6902499 5.4120951
-4.0166435 2.8224411 3.0680141
0 -1.6031883 -8.1371546
-6.6985822 6.3988218 5.916842
-2.5978026 4.0556245 1.0054787
-2.4660981 -3.8538604 8.5
-6.3056507 3.1056068 -2.7734437
-4.3863521 -4.0659199 -0.92727882
-0.77565593 -0.93348014 -8.5
-7.9368739 3.7896938 7.6692104
-6.7486043 -1.341432 -3.9386258
-3.7337384 5.2430525 7.9186454
0 -6.1599522 6.1922851
-8 -5.4896007 -0.51536989
-0.41551259 -4.3864474 1.2874866
-6.5745349 -7.2662964 -4.4143767
-7.4570103 -3.9999938 8.4739876
-2.4479606 -5.1279202 -8.1180553
-2.5348163 -4.1747494 0.10064776
-2.4684582 -4.8256583 8.5
-7.8902955 -6.6401525 -5.4988532
0 -5.9335966 5.9191341
-0.37720889 -3.2259719 3.3016696
-6.4091892 -4.0097795 1.1696529
-2.9727907 -3.8882542 -8.5
-8 6.184866 -3.2037063
-7.9716311 -7.96066 2.9301753
-4.6420808 -7.6693139 -3.7163467
-1.7337154 2.3808584 -8.5
-7.7158618 4.1753573 -0.096031278
0 3.5653965 -3.8701077
-1.9447054 -6.8403463 -5.1521225
-4.1033254 4.5331345 8.5
0 -4.0033841 4.069272
-2.8467166 -4.3269429 8.5
0 1.7949991 -7.1972775
-4.106689 -3.9590533 -8.5
-0.078857601 -5.5497856 7.3873835
-8 -3.2855594 -2.6947794
-0.20375367 -4.7962141 -0.00024653974
-8 4.0164886 -1.676831
-8 2.0721469 4.1901383
-2.5399315 -2.0718412 3.6360786
-4.3151994 5.397697 -7.6508021
-8 7.514658 2.4894032
-1.1413523 1.0927559 -4.0416317
-1.8759747 3.9029708 1.4275111
0 -7.9844732 1.721349
0 3.9138293 -6.5334406
-1.0401456 7.6063089 -3.825469
-0.62069523 7.3503428 -4.2688046
0 -6.9426041 -0.26165998
0 4.1750665 -6.8161201
0 -6.3468847 -3.9792736
-0.049079046 -8.4104834 -2.4326322
-7.6682615 -6.2825999 6.1181326
-5.5960302 -4.0763297 0.84821051
-0.046548724 1.9852959 -4.4933453
-4.9729099 -3.9094605 -1.4118428
-5.3574505 -9.7699223 0.078074232
-8 -2.828131 -4.0504537
0 4.5175538 6.2630372
0 7.2925258 -1.6337749
-1.362114 -5.6852608 7.15274
-8 4.6100464 3.975831
-8 3.759244 -4.3876886
-8 5.7186823 4.5458021
-0.98447728 -1.8589488 -8.5
-8 4.8120637 0.65532255
-3.0296881 -0.43438864 8.5
-4.9037352 -1.5686796 3.8444963
-8 7.6075029 3.594584
-2.6451733 8.9503012 1.4976643
0 0.075533509 -6.3143353
-4.4934397 0.70535713 -4.0951366
0 -6.4564466 -4.9921107
-5.6279078 -7.3497734 -4.2697973
0 -5.0189443 -2.9766374
-0.10366663 3.5847528 -8.5
-6.7472067 3.228766 8.5
-5.8209057 -9.3789587 0.75522912
-0.51134443 8.7281961 1.8823519
-2.4667659 7.069325 4.7555299
-8 7.2119122 -1.9150831
0 5.3450804 -0.44700801
-4.0907102 -6.7605181 -5.290391
-8 -3.6573043 -6.2985287
0 -6.4322739 -2.656225
-3.9769194 -9.6522532 -0.2818771
-8 6.8987246 -3.8245947
0 -4.9001026 -6.4336534
-1.3685796 -6.4502916 -5.8277001
-8 7.5181265 2.4643166
-2.1043079 -2.4565213 3.3487611
-2.0276012 -9.3763218 -0.75979006
-6.6371346 3.901423 -8.5
-5.4463396 9.4795113 0.58106852
-8 -6.8707747 -1.7843419
-0.30971342 -8.8934813 1.5960772
0 -8.7594118 -1.7695348
-4.5896177 5.302608 7.8154945
-3.9878905 5.1880646 8.0138855
0 4.2749419 5.6732011
-8 5.5604529 6.2040205
0 -3.3236005 -3.7000122
-5.6648121 6.1992269 6.2625427
0 2.3842916 7.9571381
-8 6.9929018 -0.18668079
0 -0.50825775 -5.0813651
-3.5627201 0.13880774 -4.1697254
-7.8276458 8.5429449 1.9415478
-8 1.0092969 -5.5922642
-2.2131193 -4.143342 0.33920848
-6.1281319 -5.2720904 -7.8683515
-0.10815848 -5.0342617 -8.2802753
-5.831389 -6.1328611 6.3774905
0 -2.4493413 -5.7296705
-4.7713957 -3.6610892 2.011461
-3.5134618 4.0781174 -0.83463001
-6.4716907 -6.4209819 -5.8784609
-3.5681267 5.8574882 6.8544397
-0.39951602 4.5371151 0.48125419
-1.0428677 -3.8913248 -1.4556261
-0.40880832 9.552145 0.45526776
0 -5.4281554 0.46406066
-5.8831534 -6.992517 -4.8885651
-8 -5.1648664 5.7080951
-5.9081264 9.1572266 -1.1392735
-0.78777492 -2.5319841 -3.3211355
0 3.4305286 -3.9209659
-5.4138732 1.4815508 8.5
-8 -5.5252967 -0.42688227
-7.8665504 -3.1679974 -8.0574408
0 -5.5560956 -3.8945889
0 3.2116544 -7.9042444
-6.1409106 4.9492283 -8.4275541
-8 2.3802681 -6.3913884
-1.6042247 8.5088043 2.2623391
-4.9117107 -7.9547596 -3.2219512
-0.8845132 -3.453927 -8.5
-5.5370169 5.2465224 7.9126368
-8 6.3969674 -4.0922246
-6.0715799 3.4630144 2.307605
0 -2.2432795 5.4824476
-2.2333994 -8.0106812 3.1250942
-3.7456841 -4.1469145 -0.31207356
-5.9010644 -2.8498921 8.5
-3.5905609 0.21043505 4.1602955
-2.43085 -4.0254645 8.5
-8 -3.1758561 -6.2722139
0 3.4773412 6.9040074
-3.6602266 -2.5891201 -3.2470262
-4.7896023 -3.664993 2.0020356
-7.5465727 -1.8903956 3.7112362
-2.770813 9.0866737 1.2614666
-1.0904751 3.6897404 -1.9422909
0 -6.1634197 -3.0354481
0 2.1962323 7.5818038
-7.5002594 -6.0180802 6.5762863
-7.072741 4.1610641 0.20460038
-7.7613182 8.8361626 -0.5866968
-3.6831822 2.8500614 3.0468233
-7.2015595 -3.1812031 -8.5
-2.0132484 -3.3245487 -2.4880791
0 4.0219245 -6.0170903
-6.5213852 -8.7139263 1.9070777
-3.9692371 -5.0607376 8.2344189
0 1.6264218 7.387382
-7.5285406 -1.6702368 -3.8024294
-2.6111226 3.9320841 1.3572257
-6.787395 -5.0229187 -8.2999201
-0.3782784 -1.4976292 -8.5
-8 -4.3424501 6.7528663
-7.5896721 3.897346 1.4410895
0 5.0528946 3.4322119
-4.5318704 -4.4474125 -8.5
-3.3827426 -2.7149458 -8.5
-8 4.8032074 -5.7987814
-3.8355415 -5.7104282 7.1091495
0 -3.5560663 -5.9352999
-3.9061663 -3.6162195 -2.1079211
-7.1899209 -2.5424325 -3.2828467
-1.0722933 -3.3907213 -2.4018309
-5.8239961 -5.6566496 -7.2022886
-0.10075044 4.489677 1.8537292
-3.8206971 6.4638867 5.8041568
0 -5.7256298 6.7880864
-6.9438076 -0.20583864 4.1609006
-5.1693716 6.158433 6.3331995
0 -5.6425867 -1.1855195
-6.923842 3.9877906 -1.2227395
-6.4717059 1.3392614 -3.9395251
-6.3647971 -2.8795462 -3.0242012
0 -6.1647186 2.8932428
-1.5543054 0.50785178 -4.1211395
-7.2292814 -6.6756144 -5.4374356
0 2.4260416 -7.3869143
0 -5.0195727 7.3421121
-8 3.4187188 -3.778769
-7.4117808 0.94041991 -4.0641899
-2.8738027 7.3148575 -4.330265
-6.8446407 0.54762805 -4.1159029
-5.6081057 -2.7037172 -8.5
-3.7950497 5.2454805 -7.9144421
-3.5717311 1.2844213 8.5
-8 5.3623548 -1.7102115
-4.2397261 -3.1258225 -8.5
-7.7987375 3.3999772 2.3897669
-7.6453538 2.9763494 -8.5
-5.2855663 1.9629759 8.5
-7.5899744 -1.436034 -3.8994405
-0.28727007 4.7045736 0.061941396
-8 2.6567621 -3.4468541
-8 1.0995181 -7.1641874
-1.934848 5.529562 7.4224119
-2.3302107 8.8443527 -1.6811655
-8 6.3538575 -3.4872885
-3.5670338 -8.1181831 2.9388959
-6.7020922 8.6143818 -2.0794871
-7.8113699 -3.5563002 7.9991555
-3.203135 -2.5769777 3.2563424
-8 -5.5741239 -1.7219164
0 1.4970495 7.3883262
-4.2186251 -2.919755 -2.9933515
-0.067623138 2.4189994 -4.2910843
-3.8812628 8.6381283 -2.0383506
-3.7559676 -7.7851934 3.5156384
-5.878942 -5.014441 8.3146048
-4.5203767 5.2727861 7.8671455
-0.95345271 2.8156903 3.0731938
-8 7.4490547 0.70385474
-7.8145509 4.0910826 -0.73615348
-8 3.7649717 5.498559
-2.0613823 -9.1863413 1.0888417
-5.9801517 3.3942795 2.3971934
-0.97638804 9.593853 0.38302615
-4.3333449 3.4910173 2.2711072
0 -6.9945841 -3.1746504
-8 -2.7576203 -6.1743083
-6.0150547 3.3177304 2.4969659
-2.7789164 -3.9065621 1.4188406
0 -3.137922 -4.2525444
-0.016345348 -4.481884 -2.0912142
-6.4243259 1.7086641 8.5
-1.839533 -2.4542632 -3.3504934
-1.1476779 4.5687189 8.5
-5.8793325 -7.8526564 -3.3987999
0 -4.4351478 -2.8565741
-7.3216147 -4.0508385 1.0418336
-5.7169399 6.74298 -5.3207569
-8 -7.728241 0.73946071
-7.8635721 -6.4453812 5.828361
-8 -2.2728562 3.5749874
-5.2070374 0.56837416 8.5
-0.90031534 1.4885145 3.877702
-2.7742276 -0.98641074 8.5
-2.4890485 -5.4990921 -7.4751835
-6.2163467 -3.7729611 1.7413802
-3.0505292 -1.1798798 -4.0055432
-3.010819 -3.7927387 -1.6936331
-5.7309217 8.5240402 2.2359521
-4.857945 -3.8261957 1.6128609
-5.7799821 -2.3894672 3.4002075
-3.6894321 -9.7514973 0.10998799
-6.1160231 3.0296919 -2.8723896
-3.8655744 1.3123391 -3.9506767
-5.5978627 9.3611164 -0.78613311
-4.4465299 -6.2972245 -6.0928135
-7.9057508 5.0783043 -6.9296174
-3.1574519 5.1705866 8.044158
-7.0497265 0.88342679 -8.5
-2.2999895 -6.2287369 6.2114348
-7.6255708 9.1243687 0.1833529
-8 8.4308214 -0.3951053
-4.6893268 -8.3155136 -2.597121
0 0.8277564 5.0336742
-3.8088753 -4.1117802 0.57894063
0 2.5246239 6.5821867
0 6.5241456 3.9235921
0 -7.3464899 3.2822466
-6.5945082 2.3865957 8.5
-0.30840579 -3.5330148 -3.0364895
-7.9602737 3.882591 -1.4767114
0 -4.9236593 0.62233686
-6.9995193 9.7116528 -0.17899865
-3.1987977 4.100091 -0.66772717
-7.3351731 -0.78220904 4.0850191
-1.7668524 -5.5991158 -7.3019443
-4.4058404 4.1085663 -0.60335034
-1.925903 -8.4407787 -2.3801601
-0.5447039 -6.9382987 4.9824681
0 -4.2950573 5.4166374
0 -4.113162 -3.7110033
-0.65099865 -9.0195217 1.3777733
-8 -2.4266596 4.9499531
-8 3.3338337 3.2225697
-6.30901 -6.4515629 -5.8254948
0 6.8276529 -3.2037537
-1.0852977 4.0841494 0.78881294
-6.1564479 -2.1594796 3.5766616
-8 -5.1999764 3.511003
0 -5.4783525 7.130487
-2.4583802 -4.6034842 8.5
-3.3311799 3.0232983 -2.8807235
-1.9318128 -3.6302955 -2.0858023
-1.8541949 2.1567016 -8.5
-8 0.092131399 7.6683669
-0.76266342 2.5162687 3.3645649
-8 -1.8806667 -4.0134654
-6.1598005 0.96248245 8.5
-8 1.4716167 6.5545115
-1.412995 -9.2055731 1.0555296
-1.2419895 -4.1023097 0.65087408
-0.7420994 7.0858641 -4.7268829
-8 -3.2276871 4.8897991
0 3.0085313 4.66044
-8 -4.3573465 2.6548009
-2.3293426 -6.5425801 5.6678562
-5.6730013 -0.28052258 8.5
-5.0357828 -2.9433961 -2.9752133
-3.5532613 1.6663456 8.5
0 -7.7524853 2.7383778
-7.4953451 9.2735357 0.76360828
-4.0294476 -2.5553758 -3.2729163
-8 -3.2419031 5.1769075
0 -6.2434134 -5.9914951
-6.4228444 -1.2255754 -8.5
-6.4077044 -2.4233847 3.3741841
0 -7.5259652 -0.48325646
-0.55938655 6.6343064 5.508985
-7.7773938 1.771418 3.7605188
0 4.6520653 -5.6040878
-8 3.5371947 -3.0204806
-5.3541083 -5.8860602 6.8049531
-5.5685163 3.9824357 1.2356663
-5.3756452 -9.7149525 -0.17328151
-2.139873 -8.2201786 -2.7622421
-3.7636712 -3.4324896 8.5
0 -1.8201302 8.3718987
-8 -2.7061677 6.5739079
0 0.90290171 -5.7130384
-7.2985964 -5.761651 -7.0204248
-0.54704773 4.6759586 8.5
-5.998117 4.2851238 -8.5
-4.7873831 2.748482 -3.1247582
-4.6926398 4.161015 0.20496774
-2.8040411 9.7304001 -0.1465268
-7.9513535 -0.24152018 8.5
-7.816596 -8.7400742 0.58934724
-2.468426 -7.2554598 4.4331422
-6.2370868 -0.49505424 -4.1228242
-3.7476377 -3.7385468 -1.8244619
0 0.27281713 -6.4031925
-7.4291029 7.3228364 -4.3164444
-8 -0.06890206 6.107007
-7.8658872 1.4265835 3.9033546
-4.6221242 -5.3444247 -7.7430668
-3.7275355 -1.9995302 8.5
-4.5170145 -9.5228586 -0.50598907
-6.0931435 2.7346377 -8.5
0 6.6500983 -2.9474537
-5.746191 2.0666752 -3.6382184
-7.1741424 3.1926589 2.6599815
-0.78950793 -0.82329249 8.5
-4.0348263 7.1276646 4.6544881
-6.9182358 -5.9674149 6.664042
-8 3.0298142 -3.8617954
-6.1947904 3.0623386 -8.5
-0.19861825 -4.1469464 -2.4152193
-1.5930719 3.1531186 2.7115178
-0.38773379 7.3515015 4.266798
-8 -3.589608 2.6312418
-8 -1.2278056 6.6495333
-2.7815673 3.5843892 -8.5
-2.9923658 -2.222811 3.5280714
-3.9468946 4.1401005 -0.36382779
-7.6944261 -8.9152813 -0.86578876
-7.8338728 -2.943337 2.9752588
-0.2658768 -3.3381779 -3.3546884
-4.3083138 -8.7716284 -1.8071277
-4.0058193 0.0002831039 4.187963
-1.962211 3.8455658 1.5660977
0 2.6604199 6.2050838
-1.0230774 9.5354099 0.48425165
-8 -6.3976874 3.9415836
-0.43928331 -5.1904349 -8.0097818
-7.2007704 8.5056353 2.2678373
-8 2.6726699 -4.0992708
-8 -4.7085104 -4.6399784
-5.112659 1.0648348 8.5
-0.4216713 5.396131 7.6535149
-5.1595521 8.880064 1.6193149
0 -5.2585907 2.1144283
0 -0.49186265 -6.0793171
-0.18107884 2.2470026 -4.2405767
0 -4.7770085 -3.3214839
-3.5680842 3.140552 2.7278969
-2.9474356 2.566293 -3.2645402
0 -4.111805 5.4267807
-8 5.7287679 0.47337222
-1.661814 3.2576237 -2.5753078
-8 4.9545956 -1.7444189
-5.3052545 -8.808732 -1.7428634
0 6.7971659 -4.9601583
-4.5126886 4.8687015 -8.499999
-8 -2.2699471 5.2743168
-0.33014047 -4.1348338 -2.1161087
-5.8175011 -5.4625621 7.538456
-8 5.6942596 4.3192825
-0.78875124 -6.067111 -6.4913716
0 2.1654587 -5.9766493
-7.6262169 -5.1063166 7.5131159
-1.1210173 -6.6252766 5.5246239
-6.072639 7.5348539 3.9492357
-8 6.0574994 0.86780572
-8 6.9509807 2.1347094
-2.1095047 2.7113855 3.1532202
0 -5.5335569 -4.3345194
-8 -4.4194508 0.079541624
-0.46367517 4.3262196 -1.3081127
-0.82977825 -1.3076819 -3.952606
-8 -6.2176576 -0.69566649
-5.1410589 -8.1761751 2.8384562
-1.2967893 -5.0327363 -8.2829161
-8 -5.8464489 -3.4354467
-0.92012936 -8.6706543 1.9820153
-5.9322152 -3.1060815 -2.7728248
-6.9647141 8.9646416 1.4728312
-8 5.9533076 4.2353306
-4.7231865 -1.6222658 -8.5
-3.9647419 -3.2431383 -2.5941877
-5.0324979 -5.1531839 -8.0742998
-0.50364047 0.57094145 -8.5
-3.2297254 8.8951759 -1.5931423
-0.92035729 -7.630435 -3.7836823
-0.89024007 9.2547216 -0.97040451
-6.4668546 -9.782444 -0.056386914
-4.2726068 8.7014265 1.9287174
-2.3138964 -3.215765 -2.6298656
0 6.1756239 0.61463559
0 5.7553811 -1.0753165
0 2.6766562 8.480545
-5.3426623 -8.2522449 -2.7067051
-8 1.7101357 6.6983194
0 1.9116948 -4.9626622
-3.6318784 4.4914761 -8.5
-2.1058681 -0.81116152 8.5
-1.8596284 -5.6067891 7.2886529
-5.6642518 -3.3659174 -8.5
0 -4.8193612 1.634771
-0.23562448 1.9014295 -8.5
-8 5.858994 -0.65545535
-8 4.2290869 2.5713758
0 -6.9473114 -1.9365481
-6.048213 5.481904 7.5049505
0 -4.7937937 -5.7553778
-8 4.4942408 -6.9487352
-6.177907 -6.4912653 5.7567282
-8 5.8101182 1.7501092
-4.4027915 -7.6347942 -3.776134
-6.9005742 -5.6987557 -7.1293607
-8 -4.0099936 5.3513789
0 4.7767358 1.8703684
-0.62141407 -6.7358041 -5.3331904
-7.1397777 0.12310345 -4.1717935
-7.9282389 -4.0904236 -0.74115682
-2.5745533 -8.0568933 3.0450537
-4.3778934 9.4213915 0.68173152
0 5.9750094 6.1123438
-7.3280463 0.85919833 -4.074883
-1.597038 -2.9177709 2.9948738
-8 -2.0327289 7.2993331
-6.4317951 -3.9077249 1.4160335
-1.2138202 4.9691782 8.3929996
-0.20649542 -0.5563544 4.7202473
-5.8434696 -8.5621185 2.1700048
-0.73292315 -3.3606284 2.569849
-1.4823164 -3.3574009 2.44526
-1.699495 4.0178556 -1.1501561
0 7.2637348 2.2150757
0 0.53303409 -6.5001793
0 -6.5986652 -5.4468107
-8 5.2530432 1.0591011
-1.0095195 -5.3842916 7.6740208
-6.5310092 2.1723104 -8.5
-8 -3.4374819 4.6257715
-4.833961 -3.9543095 1.3035693
-7.84583 2.3913898 3.3987319
0 -0.59784079 7.6220222
-5.4937406 -9.6837358 0.22734994
-8 1.8515611 7.4449892
0 -8.0183821 -1.1264613
0 -7.7576656 2.9236348
-7.4460492 7.1253214 -4.6585402
-2.2649338 1.4668772 3.8866644
0 -6.5044813 -1.4335318
-3.4606957 4.8003635 -8.5
-8 4.6003661 -5.7451353
-0.17036287 9.3830872 -0.74807483
-5.3070054 -5.5589023 7.371593
-4.8369551 9.4426041 0.64499247
-5.9627876 -1.7592419 3.7655621
-4.79986 9.0241985 -1.3696789
0 3.6164045 4.198926
-7.804935 -8.7177486 -0.9123854
0 5.8173423 4.9275923
-2.4204414 -6.0365553 -6.5442991
-1.3617163 -1.4327462 -3.9008021
-3.9101257 1.8155853 8.5
-8 -1.6922883 -7.418869
-2.5271115 -9.1363401 -1.1754423
-5.4770365 5.3856735 7.6716228
-7.5376382 -2.3439541 -8.5
-3.0999961 4.5052629 -8.5
-6.5433273 3.4898062 -2.2726855
-3.6874247 -7.779912 3.5247855
-3.2557414 1.4410346 -8.5
-1.5088707 2.261416 -8.5
0 -5.2885532 -5.9090919
-8 2.5759227 -6.0757022
-1.0843136 9.3963242 0.7251491
-6.4778595 -3.7577262 -1.7781594
-7.765378 -0.70943534 -8.5
-5.4821658 7.9698772 -3.1957633
-8 0.98650688 -4.2767887
-8 4.6179891 -3.5487695
-2.5040734 6.4551735 5.8192449
0 -6.064826 -4.2885542
-8 4.3867626 -3.5453384
0 4.2566433 -2.9614868
-4.9198308 -6.4226341 5.8756037
-5.7357922 -0.40685582 4.1344357
-3.7119846 2.1064301 3.6173637
0 5.3002892 4.5162964
-0.285097 -4.6282163 -0.6583423
-5.3846021 -2.19594 8.5
-1.9038801 -5.9831009 -6.6368794
0 -0.51591921 8.2218494
-0.79629624 0.43196169 4.1468339
-5.9003806 -9.6513233 0.28348869
-3.6111 -1.6813323 -3.7978334
-7.7029696 -8.9865246 -0.21215509
0 -3.5001431 -4.2925253
-7.7021108 -6.4550705 5.8194141
-7.7693348 7.7954192 3.4979329
-7.050189 6.6091361 -5.5525718
-0.58192796 3.5470545 8.5
-7.5959816 5.6482763 -7.1627049
-1.937412 1.3795223 -3.9228485
-3.8060541 9.4226933 -0.67948037
0 -7.9749742 2.4878128
-0.7619763 5.1596842 8.0630417
-3.8745387 3.536037 -2.212429
0 2.9194102 7.7661881
-4.0708213 5.8057799 -6.9439993
-0.93679237 -6.1963654 -6.2675028
-7.3567562 -8.0092192 -3.1276314
-8 3.7266417 -5.2967873
-4.0716114 -2.989902 -8.5
0 -8.5588064 -0.088474914
-3.8695931 -9.7981777 0.013917336
-7.1705127 1.1035321 -4.037168
-3.3852117 2.419229 -3.3773727
0 6.8841181 3.2086599
-1.1216643 -9.6994858 -0.20007089
-6.9531641 9.2384405 0.99860585
-8 1.9185139 7.8517237
-2.0825031 5.1950254 -8.0018311
-1.0042331 0.64920157 4.10253
0 -4.4369364 3.8572397
0 6.5818634 1.6300187
0 -5.6993008 2.3539293
-2.0879085 7.8401518 -3.4204519
-1.393581 0.9925108 8.5
0 4.4604702 -5.4382777
-6.479321 1.1367973 -4.0233889
-7.9945893 -4.1789212 0.068962358
-4.1384249 -2.4463158 3.3565907
-8 -3.6556537 2.1661711
-8 5.3589997 5.7840772
-8 0.94571668 -8.0282307
-6.3888946 3.764936 -1.7607542
-7.7210894 -8.5471315 2.1959677
-2.4776947 -3.7244673 -8.5
-6.7429929 -1.8322407 3.7353249
-8 2.4800577 -4.6532211
0 3.6290839 6.7955251
0 -3.6190493 3.571116
-8 -5.7449389 -3.6130266
-1.848089 9.7834949 -0.054565676
0 -8.1432877 0.8593545
-6.0727663 3.7726874 -1.7420398
